ncols         195
nrows         56
xllcorner     208046.226056
yllcorner     1378510.38911
cellsize      1
NODATA_value  -9999
-9999 -9999 -9999 -9999 -9999 -9999 82.84689 82.83668 82.82732 82.82249 82.81892 82.81315 82.80717 82.80316 82.80536 82.81831 82.82833 82.82168 82.81487 82.82457 82.83405 82.82668 82.82283 82.84288 82.86728 82.87627 82.87815 82.88124 82.88876 82.90375 82.91935 82.92877 82.93466 82.93999 82.9453 82.95125 82.95455 82.9521 82.95138 82.95998 82.97083 82.97667 82.97979 82.98251 82.98251 82.97751 82.97438 82.97998 82.98598 82.98378 82.98019 82.98208 82.98489 82.98418 82.98309 82.98501 82.99332 83.01167 83.03274 83.04933 83.06001 83.06311 83.06361 83.06624 83.07095 83.07747 83.08597 83.09627 83.10819 83.12167 83.13435 83.14419 83.15216 83.15959 83.17154 83.19334 83.2176 83.23703 83.25192 83.26206 83.27491 83.29745 83.32062 83.33495 83.34972 83.37376 83.39995 83.42124 83.44434 83.47622 83.51185 83.54621 83.57781 83.60497 83.62997 83.65498 83.68404 83.72121 83.76154 83.79995 83.83675 83.87202 83.90533 83.93581 83.97008 84.01453 84.06246 84.10705 84.1461 84.17749 84.20341 84.22626 84.25079 84.28206 84.31716 84.35328 84.39791 84.45825 84.51403 84.54453 84.5668 84.59746 84.6278 84.64876 84.66341 84.67504 84.69066 84.71748 84.7484 84.77624 84.80182 84.82624 84.84344 84.8475 84.85093 84.86624 84.88936 84.91622 84.93781 84.94499 84.94968 84.96374 84.98611 85.01579 85.03934 85.04335 85.04146 85.0475 85.05872 85.07249 85.0881 85.10499 85.11592 85.11378 85.10686 85.10376 85.10873 85.12624 85.14061 85.13627 85.12406 85.11501 85.11391 85.1256 85.1375 85.13688 85.13578 85.14623 85.15656 85.155 85.14209 85.11837 85.09606 85.0875 85.08188 85.06836 85.05479 85.0492 85.04319 85.02873 85.01255 85.00124 84.99128 84.97872 84.96381 84.94623 84.93472 84.93743 84.9366 -9999 -9999 -9999 -9999 -9999 -9999
-9999 -9999 -9999 -9999 -9999 -9999 82.84016 82.82545 82.80866 82.80408 82.80061 82.78706 82.77592 82.77965 82.79402 82.81477 82.82561 82.81024 82.79629 82.81153 82.82777 82.8167 82.80598 82.82343 82.84617 82.85123 82.85133 82.85897 82.87094 82.88396 82.89623 82.90595 82.91531 82.92656 82.93547 82.93783 82.93665 82.93501 82.93681 82.94594 82.95862 82.97104 82.97858 82.97659 82.97028 82.96492 82.96051 82.9571 82.95594 82.95824 82.96365 82.97177 82.97521 82.96659 82.95739 82.95918 82.97001 82.98792 83.00759 83.02375 83.03462 83.03846 83.03927 83.04107 83.04268 83.04295 83.04833 83.06532 83.08432 83.09573 83.10533 83.11887 83.13177 83.13949 83.14935 83.16875 83.18698 83.19336 83.20095 83.22282 83.24984 83.27281 83.29024 83.30064 83.31509 83.34468 83.37811 83.40405 83.43147 83.46935 83.50935 83.5431 83.57131 83.59468 83.61687 83.64154 83.67037 83.70498 83.74038 83.77156 83.80016 83.82781 83.86156 83.90842 83.96111 84.01234 84.05871 84.09676 84.12817 84.15468 84.17781 84.19907 84.22593 84.2659 84.30671 84.33603 84.37191 84.43245 84.48952 84.5149 84.53256 84.56655 84.59999 84.61595 84.62565 84.64033 84.66392 84.70027 84.73615 84.75813 84.77695 84.80341 84.82835 84.8425 84.85265 84.86562 84.8828 84.90562 84.92616 84.93656 84.94807 84.97199 84.99879 85.01889 85.03043 85.03157 85.03072 85.03625 85.04687 85.06123 85.08107 85.1081 85.12905 85.13063 85.12453 85.12248 85.12639 85.13811 85.1461 85.13877 85.12675 85.12073 85.12284 85.13523 85.14576 85.14224 85.13956 85.15268 85.16636 85.16531 85.1514 85.12649 85.10371 85.09624 85.09506 85.09113 85.08618 85.08196 85.07415 85.05843 85.04257 85.03436 85.02647 85.01155 84.99648 84.98811 84.98215 84.97436 84.95837 -9999 -9999 -9999 -9999 -9999 -9999
-9999 -9999 -9999 -9999 -9999 -9999 82.81623 82.80505 82.78969 82.78377 82.77968 82.77003 82.76136 82.76043 82.76867 82.78746 82.80168 82.79585 82.78938 82.80164 82.81292 82.80334 82.79356 82.80414 82.8195 82.82374 82.82707 82.83958 82.85498 82.86709 82.878 82.89 82.9003 82.90627 82.91158 82.91998 82.92864 82.93459 82.93832 82.94041 82.94283 82.94747 82.95035 82.94713 82.94103 82.93546 82.93342 82.93835 82.9427 82.93918 82.93851 82.95168 82.96261 82.95543 82.94304 82.93832 82.9446 82.96497 82.98828 83.00311 83.0122 83.01814 83.019 83.01295 83.00592 83.0042 83.01227 83.035 83.06027 83.07626 83.08811 83.10125 83.11449 83.12666 83.13957 83.15498 83.16532 83.16291 83.16554 83.19078 83.22488 83.25375 83.27405 83.28251 83.2956 83.32997 83.36747 83.38999 83.41153 83.44624 83.48312 83.5112 83.53499 83.55871 83.58501 83.6162 83.6475 83.6737 83.70001 83.73126 83.76173 83.78585 83.81589 83.86458 83.92232 83.98 84.03119 84.07 84.10031 84.12621 84.14907 84.16997 84.19958 84.24828 84.29975 84.33748 84.3764 84.43161 84.48287 84.50999 84.52718 84.54873 84.5709 84.59001 84.61029 84.63622 84.66626 84.69872 84.72749 84.74623 84.76467 84.79247 84.81874 84.83249 84.84095 84.85123 84.86563 84.88625 84.90935 84.93124 84.95389 84.97935 85.00207 85.01646 85.02358 85.02459 85.02552 85.03249 85.04748 85.07249 85.09621 85.10748 85.11283 85.11874 85.125 85.13124 85.13687 85.14124 85.14124 85.13377 85.12542 85.12292 85.12875 85.14539 85.15813 85.15208 85.14624 85.15957 85.17394 85.17126 85.15845 85.14253 85.12997 85.12752 85.1284 85.12621 85.11877 85.10374 85.0872 85.075 85.06408 85.05125 85.03595 85.01752 85.00096 84.99125 84.9816 84.965 84.94567 -9999 -9999 -9999 -9999 -9999 -9999
-9999 -9999 -9999 -9999 -9999 -9999 82.78561 82.77875 82.76814 82.76123 82.75796 82.75813 82.75758 82.7522 82.74998 82.75896 82.77104 82.77824 82.78386 82.79144 82.79459 82.78683 82.77978 82.78493 82.79368 82.79722 82.8036 82.82091 82.84053 82.85375 82.86498 82.87875 82.88866 82.88845 82.88918 82.90203 82.91861 82.93065 82.93559 82.93082 82.92263 82.91707 82.91436 82.91437 82.91419 82.91063 82.91121 82.92332 82.93206 82.92252 82.91479 82.92917 82.94487 82.94128 82.92931 82.92022 82.92215 82.94341 82.96838 82.98138 82.98875 82.9966 82.99795 82.98551 82.97227 82.97092 82.9831 83.01031 83.03967 83.05844 83.0711 83.0823 83.09483 83.11177 83.12859 83.14102 83.14606 83.14062 83.14165 83.16589 83.20178 83.23746 83.26305 83.26843 83.27715 83.31279 83.3523 83.37282 83.3895 83.41781 83.44903 83.47469 83.4984 83.52376 83.55283 83.58767 83.61915 83.63799 83.65842 83.69434 83.73162 83.75581 83.78248 83.82694 83.88251 83.94238 83.99663 84.03563 84.0659 84.09438 84.12129 84.14719 84.18135 84.2333 84.28959 84.33672 84.38063 84.42712 84.4696 84.50121 84.52264 84.53435 84.5467 84.56999 84.60043 84.63436 84.66644 84.69125 84.71255 84.73405 84.75802 84.78685 84.81143 84.82259 84.82891 84.83885 84.8519 84.86748 84.89015 84.92434 84.95889 84.98248 84.99879 85.01145 85.02023 85.02489 85.02904 85.03624 85.05272 85.08466 85.1092 85.10345 85.09313 85.10396 85.12304 85.13739 85.14434 85.14126 85.13454 85.13063 85.1293 85.13031 85.13758 85.15498 85.16772 85.16094 85.15353 85.16436 85.17687 85.17439 85.16563 85.15939 85.1567 85.15875 85.16013 85.15563 85.14247 85.11806 85.09519 85.08677 85.07983 85.06126 85.03918 85.02157 85.00643 84.99157 84.97472 84.95346 84.93629 -9999 -9999 -9999 -9999 -9999 -9999
-9999 -9999 -9999 -9999 -9999 -9999 82.75858 82.75004 82.74158 82.73627 82.73721 82.7475 82.75854 82.76165 82.75873 82.75166 82.74845 82.75709 82.76948 82.7775 82.77788 82.76733 82.75887 82.76562 82.77516 82.77499 82.77896 82.80081 82.82717 82.84458 82.85739 82.87 82.87937 82.8825 82.8839 82.88812 82.89469 82.90314 82.90822 82.90462 82.89721 82.89085 82.88992 82.89875 82.90895 82.91207 82.91176 82.91167 82.9098 82.90417 82.9023 82.91166 82.91991 82.91463 82.90554 82.9025 82.90781 82.92375 82.94154 82.95251 82.96024 82.96835 82.97105 82.96252 82.95304 82.95292 82.96603 82.99622 83.02592 83.03751 83.04263 83.05294 83.0675 83.08541 83.10283 83.11585 83.12261 83.12126 83.12521 83.1479 83.18227 83.22122 83.24812 83.24628 83.24564 83.27623 83.31688 83.34626 83.3703 83.39499 83.42312 83.45748 83.49096 83.51623 83.53894 83.56458 83.58907 83.60835 83.63363 83.67621 83.71965 83.74748 83.77518 83.81828 83.87026 83.92454 83.97173 84.0025 84.02846 84.06126 84.09873 84.13872 84.1809 84.22497 84.26947 84.31291 84.35373 84.39041 84.42513 84.46002 84.49093 84.51373 84.53342 84.55499 84.57905 84.60625 84.63312 84.65628 84.68157 84.715 84.74998 84.77998 84.80322 84.81791 84.82967 84.84414 84.85571 84.85874 84.87124 84.91121 84.95481 84.97812 84.99187 85.00686 85.02171 85.03498 85.04434 85.04748 85.05467 85.07624 85.09564 85.09628 85.09583 85.11205 85.13341 85.14831 85.15302 85.14377 85.13438 85.13873 85.14764 85.15165 85.15529 85.1629 85.16782 85.16335 85.15907 85.16458 85.17271 85.17625 85.17532 85.17001 85.16563 85.1675 85.16844 85.16127 85.14742 85.12835 85.11095 85.10208 85.0927 85.07376 85.05563 85.04873 85.04214 85.02497 85.00341 84.98372 84.96812 -9999 -9999 -9999 -9999 -9999 -9999
-9999 -9999 -9999 -9999 -9999 -9999 82.73888 82.72709 82.71832 82.71447 82.71886 82.73469 82.75243 82.7626 82.76074 82.74261 82.72731 82.73417 82.74924 82.75875 82.75981 82.74959 82.74232 82.75216 82.76328 82.75969 82.75951 82.78078 82.80943 82.83115 82.84738 82.85969 82.86917 82.87708 82.88062 82.8771 82.87283 82.87428 82.87617 82.87322 82.86927 82.8679 82.87311 82.88863 82.90466 82.91123 82.90758 82.89279 82.88023 82.88303 82.89071 82.89282 82.89051 82.88513 82.88235 82.88812 82.8978 82.90688 82.91517 82.92258 82.92979 82.93727 82.94218 82.94135 82.93907 82.93946 82.95053 82.98013 83.00697 83.00986 83.00744 83.01877 83.03683 83.055 83.07151 83.08492 83.09492 83.10143 83.11131 83.13122 83.16085 83.19962 83.2267 83.22093 83.21478 83.24059 83.28104 83.31875 83.35059 83.37374 83.40073 83.44436 83.48746 83.5128 83.52919 83.54531 83.56352 83.58623 83.61833 83.66461 83.71088 83.74278 83.77341 83.81587 83.86472 83.91435 83.95552 83.97906 84.00037 84.035 84.08012 84.13308 84.18339 84.2206 84.25228 84.28601 84.31874 84.34724 84.37738 84.41465 84.45457 84.49234 84.52325 84.5424 84.55667 84.57313 84.59403 84.62157 84.65576 84.69654 84.73533 84.76373 84.78602 84.80653 84.82639 84.84653 84.85859 84.85406 84.85898 84.8993 84.94483 84.96513 84.97675 84.99618 85.01868 85.03947 85.05308 85.05416 85.0537 85.06271 85.07681 85.09166 85.10837 85.12812 85.14615 85.15781 85.15929 85.1469 85.13813 85.15062 85.16763 85.17229 85.1711 85.17041 85.16923 85.16646 85.16415 85.16427 85.16817 85.17718 85.18304 85.17751 85.17039 85.17157 85.17187 85.16222 85.14963 85.14127 85.1339 85.12437 85.11124 85.09292 85.07961 85.08122 85.08089 85.06145 85.03759 85.02383 85.01254 -9999 -9999 -9999 -9999 -9999 -9999
-9999 -9999 -9999 -9999 -9999 -9999 82.73022 82.71835 82.70668 82.70168 82.70448 82.71625 82.72752 82.7288 82.7219 82.70878 82.70128 82.71125 82.72635 82.73418 82.73737 82.73856 82.74166 82.7506 82.75733 82.75374 82.75156 82.76249 82.78187 82.80499 82.82719 82.84376 82.8549 82.86084 82.86424 82.86772 82.86917 82.86646 82.85955 82.84836 82.84149 82.84751 82.86 82.87251 82.88055 82.87962 82.87107 82.85629 82.84775 82.85793 82.8698 82.86628 82.85973 82.86252 82.87062 82.88 82.88844 82.89375 82.89665 82.89793 82.90055 82.90752 82.91512 82.9196 82.92115 82.92001 82.92612 82.94938 82.97094 82.9719 82.97061 82.98543 83.00749 83.02792 83.04418 83.05377 83.06292 83.07791 83.095 83.11042 83.13199 83.1675 83.19624 83.19752 83.19844 83.22622 83.26497 83.29874 83.32719 83.35001 83.37748 83.41998 83.4625 83.49001 83.50958 83.52832 83.54874 83.57332 83.60519 83.64747 83.69028 83.72374 83.75645 83.79707 83.84496 83.89954 83.94704 83.97373 83.99435 84.02373 84.06435 84.11871 84.17402 84.21746 84.2509 84.27623 84.29874 84.32374 84.35435 84.39371 84.43612 84.47581 84.50842 84.52958 84.54395 84.55625 84.57658 84.61495 84.65652 84.68623 84.70905 84.73 84.75169 84.77668 84.80218 84.82542 84.842 84.84751 84.85967 84.8962 84.93216 84.94252 84.94888 84.97292 85.00187 85.02293 85.03679 85.04418 85.0501 85.05957 85.07415 85.09539 85.1181 85.13707 85.15124 85.15958 85.15959 85.14877 85.14313 85.15872 85.17657 85.17751 85.17406 85.17873 85.18279 85.17749 85.17 85.1675 85.16999 85.17749 85.18437 85.185 85.18467 85.18872 85.18904 85.1775 85.16521 85.16331 85.16341 85.15706 85.14375 85.12292 85.10519 85.10123 85.09511 85.07087 85.0469 85.04166 85.04062 -9999 -9999 -9999 -9999 -9999 -9999
-9999 -9999 -9999 -9999 -9999 82.71728 82.72035 82.71157 82.69978 82.69375 82.6939 82.70062 82.70367 82.69285 82.67921 82.67408 82.67728 82.68886 82.70113 82.70664 82.71204 82.72388 82.73616 82.74262 82.74513 82.74532 82.74555 82.74812 82.75803 82.78029 82.80551 82.82438 82.83521 82.83658 82.83877 82.85235 82.86419 82.8614 82.84939 82.83356 82.82461 82.83312 82.84682 82.85332 82.85263 82.84458 82.83356 82.82375 82.82224 82.83605 82.84788 82.84055 82.83281 82.84364 82.86002 82.86906 82.87366 82.87685 82.87811 82.87686 82.87711 82.8827 82.89103 82.89925 82.90443 82.90343 82.90601 82.92188 82.93639 82.93503 82.93369 82.94856 82.97247 82.99863 83.01859 83.02415 83.03084 83.05412 83.07992 83.09384 83.10928 83.1395 83.16734 83.17545 83.18446 83.21498 83.25168 83.27937 83.3027 83.32657 83.3548 83.39154 83.4277 83.45408 83.47759 83.50525 83.53382 83.55997 83.58923 83.62694 83.66725 83.70412 83.74021 83.778 83.82315 83.88139 83.93617 83.97102 83.99537 84.01884 84.05069 84.10028 84.15626 84.20744 84.24724 84.26904 84.28562 84.30966 84.34186 84.38275 84.42449 84.45903 84.48763 84.51155 84.5309 84.54594 84.57003 84.61652 84.66032 84.67616 84.68279 84.69924 84.72243 84.74914 84.77647 84.80132 84.8233 84.84186 84.86341 84.89435 84.91943 84.92334 84.92774 84.95426 84.98531 85.00333 85.0164 85.0327 85.04934 85.06342 85.07928 85.10123 85.12378 85.14145 85.15296 85.15708 85.15537 85.14938 85.1489 85.16373 85.17854 85.17792 85.17641 85.18852 85.19869 85.19125 85.17995 85.17843 85.18204 85.18595 85.1907 85.19688 85.20295 85.2075 85.20663 85.19658 85.18645 85.18552 85.18734 85.1855 85.17594 85.15439 85.13223 85.12061 85.10754 85.08065 85.05878 85.06059 85.06886 -9999 -9999 -9999 -9999 -9999 -9999
-9999 -9999 -9999 -9999 -9999 82.69669 82.69698 82.69461 82.69072 82.68668 82.68697 82.69624 82.70094 82.68752 82.67001 82.66251 82.66251 82.66748 82.67417 82.67914 82.68533 82.69539 82.70511 82.70995 82.71441 82.72249 82.73185 82.73999 82.75155 82.77122 82.79122 82.80376 82.80893 82.80711 82.80846 82.8233 82.83855 82.84081 82.83668 82.83251 82.82938 82.82835 82.82981 82.83418 82.83697 82.83375 82.82647 82.81709 82.81374 82.82458 82.83344 82.82419 82.81533 82.82539 82.84042 82.84623 82.84753 82.84873 82.85164 82.85789 82.86406 82.86668 82.87102 82.88249 82.89405 82.89875 82.90359 82.91561 82.92218 82.91066 82.8986 82.90378 82.9251 82.96159 82.99281 82.9979 83.00291 83.03369 83.06966 83.08999 83.10638 83.1306 83.1506 83.1544 83.16074 83.18874 83.22433 83.25375 83.27996 83.30624 83.33436 83.3662 83.39437 83.41121 83.43104 83.46783 83.5078 83.53663 83.5655 83.60538 83.6512 83.69788 83.7407 83.77498 83.81152 83.86121 83.91284 83.95539 83.98841 84.01164 84.03853 84.08244 84.13371 84.18243 84.22312 84.24997 84.27124 84.29497 84.32561 84.36748 84.40859 84.43708 84.45966 84.48335 84.50766 84.53248 84.56346 84.60622 84.64365 84.65833 84.66843 84.69206 84.72048 84.74498 84.76872 84.79498 84.81998 84.83998 84.86028 84.88623 84.90925 84.92083 84.93292 84.95747 84.98322 84.99874 85.013 85.03498 85.05685 85.07083 85.08384 85.10289 85.12415 85.14373 85.15561 85.15376 85.14812 85.14874 85.155 85.16624 85.1776 85.18416 85.19032 85.2004 85.20698 85.2025 85.19718 85.20126 85.20808 85.21127 85.21342 85.21752 85.21967 85.21626 85.21125 85.20874 85.20564 85.19875 85.19344 85.19499 85.19324 85.17792 85.16025 85.15123 85.14072 85.1184 85.10058 85.10418 85.1134 -9999 -9999 -9999 -9999 -9999 -9999
-9999 -9999 -9999 -9999 -9999 82.67949 82.67255 82.6727 82.67496 82.67416 82.67659 82.68844 82.69577 82.68472 82.6675 82.65657 82.65096 82.64981 82.65236 82.65803 82.66418 82.66822 82.67241 82.67883 82.68829 82.70139 82.71581 82.72935 82.74371 82.76051 82.77406 82.77877 82.77882 82.77876 82.78228 82.79334 82.80572 82.81345 82.82014 82.82957 82.833 82.82157 82.81034 82.81425 82.82334 82.82738 82.82568 82.81739 82.81104 82.8151 82.81863 82.81075 82.80383 82.81042 82.81977 82.82127 82.81898 82.81721 82.82117 82.83631 82.84962 82.84791 82.8463 82.85963 82.87663 82.88559 82.89302 82.90516 82.90942 82.89331 82.87444 82.87065 82.88747 82.9306 82.97082 82.97908 82.98445 83.0162 83.05568 83.08403 83.10538 83.12372 83.13593 83.13874 83.14561 83.16997 83.20287 83.23531 83.2656 83.29217 83.31793 83.34592 83.36792 83.37566 83.3909 83.43559 83.48544 83.51623 83.54482 83.58806 83.63932 83.69183 83.73811 83.77058 83.8013 83.84217 83.88863 83.9362 83.97893 84.01091 84.04101 84.07809 84.11794 84.15623 84.19241 84.2259 84.25514 84.2784 84.30585 84.34745 84.38786 84.41142 84.42948 84.45313 84.4828 84.51902 84.55753 84.59393 84.62339 84.64095 84.6588 84.68935 84.72216 84.74685 84.76873 84.7931 84.81637 84.83487 84.85342 84.87674 84.90191 84.92593 84.9482 84.9682 84.98451 84.99573 85.0101 85.03601 85.06116 85.07333 85.08298 85.10071 85.12196 85.14217 85.15401 85.15011 85.14429 85.15041 85.16095 85.16843 85.17735 85.19216 85.20609 85.21218 85.21359 85.21342 85.21555 85.22372 85.23239 85.23582 85.23686 85.23834 85.23551 85.22377 85.21469 85.21999 85.2243 85.21232 85.19898 85.19946 85.20224 85.19572 85.18749 85.18497 85.1803 85.1652 85.15247 85.15453 85.16006 -9999 -9999 -9999 -9999 -9999 -9999
-9999 -9999 -9999 -9999 -9999 82.67126 82.65939 82.65128 82.64785 82.65002 82.65563 82.66252 82.66473 82.6563 82.64503 82.63876 82.63679 82.63834 82.64281 82.64957 82.65552 82.6575 82.66197 82.67539 82.68998 82.69793 82.70261 82.70751 82.71584 82.73083 82.74388 82.74628 82.74772 82.7579 82.76947 82.775 82.77948 82.78792 82.79845 82.80918 82.81263 82.80129 82.78981 82.79292 82.80138 82.80585 82.80709 82.80584 82.80293 82.79918 82.79574 82.79375 82.79501 82.80125 82.80625 82.80376 82.79721 82.79002 82.7906 82.8075 82.8219 82.81505 82.80785 82.82127 82.83875 82.84378 82.8485 82.86504 82.87939 82.87751 82.87031 82.86874 82.88196 82.91913 82.95686 82.97166 82.98072 83.00124 83.02938 83.06125 83.08828 83.10189 83.11312 83.13309 83.1573 83.18121 83.20715 83.23746 83.26622 83.28748 83.30748 83.33248 83.35344 83.36125 83.37852 83.42786 83.48151 83.51165 83.538 83.58038 83.62871 83.6729 83.71261 83.74751 83.78373 83.82746 83.87507 83.92288 83.97246 84.02534 84.07127 84.09994 84.1206 84.14249 84.16906 84.20374 84.23686 84.25875 84.2828 84.32247 84.36156 84.38377 84.40198 84.42915 84.46487 84.50871 84.55293 84.58955 84.61665 84.63208 84.64687 84.67207 84.70364 84.73749 84.76624 84.78251 84.79679 84.81958 84.84592 84.87081 84.89758 84.92955 84.95747 84.97207 84.97823 84.98085 84.99126 85.02082 85.05081 85.06251 85.07188 85.09499 85.11998 85.13499 85.14293 85.14668 85.1503 85.1579 85.16634 85.17249 85.18137 85.19789 85.21405 85.22166 85.22446 85.22623 85.22874 85.23375 85.23896 85.24209 85.24531 85.25082 85.25113 85.23875 85.22874 85.23621 85.24415 85.23541 85.22123 85.2129 85.20948 85.20998 85.21216 85.21372 85.21156 85.20249 85.19414 85.19413 -9999 -9999 -9999 -9999 -9999 -9999 -9999
-9999 -9999 -9999 -9999 -9999 82.66564 82.65016 82.63254 82.62144 82.62575 82.63436 82.63638 82.63277 82.62472 82.61788 82.618 82.62233 82.62791 82.63457 82.64206 82.64825 82.65092 82.6577 82.67612 82.69351 82.69707 82.69274 82.68638 82.68537 82.69729 82.70978 82.71075 82.71463 82.73623 82.75744 82.7602 82.75826 82.76528 82.77465 82.77946 82.77947 82.77415 82.76988 82.77282 82.77743 82.77825 82.77907 82.78397 82.78562 82.777 82.76962 82.77531 82.78547 82.79155 82.79248 82.78707 82.77808 82.76802 82.76527 82.77808 82.7894 82.78191 82.77461 82.78658 82.80092 82.80097 82.80219 82.82034 82.84286 82.85751 82.86583 82.86969 82.88025 82.9088 82.94083 82.96153 82.97517 82.98581 83.00194 83.03183 83.05988 83.07018 83.08425 83.12386 83.16606 83.18811 83.20481 83.23122 83.25939 83.28155 83.30155 83.3234 83.34194 83.35186 83.37203 83.42127 83.47466 83.50695 83.53604 83.57976 83.62357 83.6529 83.68021 83.71812 83.76355 83.8137 83.8641 83.9104 83.9627 84.03125 84.09096 84.11654 84.12601 84.13749 84.15609 84.18684 84.21889 84.24123 84.26561 84.3037 84.34129 84.36407 84.38428 84.41434 84.45292 84.49873 84.54488 84.58434 84.61307 84.62676 84.63617 84.65205 84.67872 84.72026 84.75654 84.76717 84.77501 84.80279 84.83642 84.86176 84.88697 84.92038 84.94999 84.96395 84.9683 84.96928 84.9796 85.01205 85.0444 85.05438 85.06288 85.0909 85.11943 85.12937 85.13329 85.14374 85.15607 85.16561 85.17274 85.1778 85.18542 85.20009 85.21648 85.22915 85.23721 85.23968 85.23991 85.24126 85.24327 85.24563 85.25117 85.26282 85.26896 85.25815 85.24757 85.25466 85.26475 85.26301 85.25288 85.2375 85.2262 85.228 85.23464 85.23759 85.23663 85.23148 85.22561 85.22272 -9999 -9999 -9999 -9999 -9999 -9999 -9999
-9999 -9999 -9999 -9999 -9999 82.65626 82.63754 82.61877 82.60793 82.6129 82.62312 82.62792 82.62511 82.61252 82.60146 82.60334 82.60999 82.61334 82.61674 82.62372 82.63126 82.63624 82.64344 82.65746 82.67283 82.68378 82.68667 82.67793 82.6699 82.675 82.68122 82.6767 82.67883 82.70541 82.7336 82.74086 82.74061 82.74664 82.75179 82.74873 82.7448 82.74705 82.7522 82.75665 82.75803 82.75374 82.75014 82.7533 82.75549 82.74878 82.74531 82.7575 82.77186 82.77502 82.77113 82.7646 82.7575 82.75208 82.75052 82.75498 82.76065 82.7625 82.76563 82.77499 82.78375 82.785 82.78656 82.79625 82.81091 82.82751 82.84059 82.84503 82.85401 82.88123 82.91267 82.93455 82.95125 82.96705 82.98458 83.00621 83.025 83.03371 83.05157 83.09743 83.14211 83.15628 83.16341 83.18753 83.22273 83.26371 83.29871 83.31624 83.32439 83.33127 83.34963 83.39242 83.44344 83.48621 83.52997 83.58369 83.62807 83.64375 83.65718 83.69494 83.74557 83.79747 83.84775 83.89372 83.94338 84.00497 84.06149 84.09628 84.11841 84.13748 84.15653 84.17872 84.20373 84.23122 84.2634 84.30246 84.33871 84.36249 84.38352 84.41164 84.44611 84.48622 84.52859 84.56956 84.60236 84.62 84.6303 84.64124 84.66125 84.69869 84.73498 84.75122 84.76488 84.7933 84.82362 84.84289 84.86086 84.88703 84.91513 84.93874 84.95872 84.97623 84.99844 85.03243 85.06063 85.06499 85.06844 85.09372 85.12154 85.1325 85.13603 85.14165 85.15155 85.16789 85.18164 85.18375 85.18532 85.19749 85.21561 85.23498 85.24937 85.25249 85.2522 85.25623 85.26083 85.26209 85.26686 85.28208 85.29143 85.27878 85.26531 85.2725 85.28559 85.29002 85.28639 85.27541 85.26357 85.25705 85.25512 85.25665 85.25751 85.25333 85.24668 85.24 -9999 -9999 -9999 -9999 -9999 -9999 -9999
-9999 -9999 -9999 -9999 -9999 82.63816 82.62074 82.60596 82.5986 82.60343 82.61343 82.62157 82.62082 82.60421 82.58821 82.58938 82.59566 82.59492 82.59451 82.60188 82.61125 82.61689 82.62238 82.63136 82.64389 82.66 82.67011 82.66462 82.65601 82.65689 82.65801 82.65013 82.65049 82.67635 82.7062 82.71845 82.72183 82.72512 82.72459 82.7165 82.71215 82.72291 82.73622 82.7395 82.73606 82.7293 82.72385 82.7244 82.72621 82.7246 82.72702 82.74094 82.75465 82.75638 82.75124 82.7444 82.73898 82.73814 82.7384 82.73637 82.73746 82.74719 82.75899 82.76626 82.77092 82.77491 82.77813 82.78053 82.78632 82.79969 82.81228 82.81565 82.82342 82.84925 82.87921 82.89928 82.91795 82.94373 82.9678 82.98127 82.98931 82.9972 83.01759 83.0631 83.10515 83.11503 83.11832 83.14063 83.18084 83.23775 83.2859 83.29971 83.29984 83.3072 83.32671 83.3634 83.41161 83.4656 83.52379 83.58461 83.62839 83.63533 83.64018 83.67786 83.7312 83.78288 83.83156 83.8759 83.92013 83.96842 84.01711 84.06249 84.10201 84.1331 84.1563 84.17218 84.19069 84.22183 84.26066 84.30215 84.33891 84.36353 84.38523 84.4133 84.44442 84.47528 84.50956 84.55081 84.58792 84.60969 84.62289 84.63437 84.65166 84.68227 84.71552 84.74071 84.76466 84.79424 84.8199 84.83208 84.84138 84.85844 84.88316 84.91549 84.95114 84.9858 85.01915 85.0509 85.07249 85.07532 85.0771 85.0956 85.11811 85.13187 85.13885 85.14104 85.14881 85.17255 85.19398 85.19469 85.19135 85.2006 85.21803 85.23904 85.25561 85.25968 85.26104 85.26945 85.27831 85.28092 85.2861 85.30267 85.31206 85.29563 85.27839 85.28539 85.30116 85.31019 85.31283 85.30947 85.30087 85.2878 85.27789 85.27872 85.28216 85.27998 85.27274 85.26103 -9999 -9999 -9999 -9999 -9999 -9999 -9999
-9999 -9999 -9999 -9999 -9999 82.60624 82.59909 82.59 82.58481 82.58915 82.59689 82.60168 82.59895 82.58421 82.57042 82.57085 82.57509 82.57294 82.57291 82.58375 82.595 82.59624 82.59772 82.60956 82.62272 82.62794 82.62879 82.62873 82.63034 82.63585 82.63988 82.6371 82.63969 82.65998 82.6832 82.6946 82.69707 82.69379 82.68775 82.68208 82.68501 82.70455 82.72146 82.71625 82.70452 82.70165 82.70397 82.70749 82.71136 82.71458 82.71895 82.72625 82.73415 82.74043 82.74167 82.7346 82.72584 82.7221 82.72103 82.72041 82.72167 82.72623 82.73284 82.73998 82.74617 82.74957 82.75346 82.76085 82.77176 82.78624 82.79842 82.80251 82.80833 82.82583 82.84705 82.86419 82.88428 82.91454 82.94209 82.95374 82.95846 82.96498 82.98501 83.02993 83.07468 83.09376 83.10468 83.12498 83.15809 83.20747 83.24994 83.26255 83.26755 83.2875 83.31841 83.35621 83.40308 83.4612 83.52152 83.57494 83.61062 83.6175 83.62605 83.66662 83.72183 83.77413 83.821 83.85998 83.89839 83.94373 83.99182 84.03872 84.08089 84.115 84.14124 84.15998 84.17905 84.20621 84.24186 84.28619 84.32697 84.35165 84.37499 84.41164 84.44789 84.46999 84.49347 84.53371 84.57308 84.59376 84.60748 84.62624 84.65039 84.68039 84.71216 84.74165 84.77257 84.80873 84.83766 84.8471 84.85091 84.86333 84.88413 84.91329 84.94716 84.98206 85.0133 85.03625 85.05309 85.06626 85.07749 85.08875 85.10094 85.11497 85.12938 85.14249 85.15997 85.18748 85.21059 85.21502 85.21378 85.21997 85.23032 85.24123 85.25061 85.25626 85.26198 85.27166 85.28249 85.29166 85.30258 85.31874 85.32436 85.30378 85.28324 85.28915 85.30582 85.31749 85.32333 85.3225 85.3175 85.31082 85.3073 85.31162 85.31876 85.32329 85.31941 85.30081 -9999 -9999 -9999 -9999 -9999 -9999 -9999
-9999 -9999 -9999 -9999 -9999 82.5769 82.57992 82.57658 82.57269 82.57418 82.57629 82.5744 82.56837 82.55836 82.55051 82.55113 82.55367 82.55135 82.55303 82.56737 82.57983 82.57562 82.57178 82.58517 82.5983 82.59331 82.58617 82.59263 82.6049 82.61543 82.62326 82.62772 82.634 82.6475 82.66109 82.66759 82.66771 82.66187 82.65588 82.65531 82.66485 82.68903 82.70598 82.69359 82.67503 82.67367 82.68079 82.68793 82.69499 82.70219 82.70685 82.70657 82.70838 82.71935 82.72745 82.7204 82.70838 82.70134 82.70011 82.7054 82.71024 82.70763 82.70531 82.71117 82.71851 82.72086 82.72543 82.73969 82.75739 82.7725 82.78329 82.78824 82.79305 82.80351 82.81744 82.83237 82.85258 82.88204 82.91022 82.92622 82.93485 82.94064 82.95763 82.99998 83.04689 83.07781 83.09966 83.11967 83.14285 83.17438 83.20283 83.21684 83.23306 83.26776 83.31145 83.35434 83.40154 83.45807 83.51176 83.55031 83.57676 83.59438 83.61904 83.66684 83.72271 83.77152 83.81261 83.84531 83.87921 83.92402 83.97335 84.02058 84.06255 84.09592 84.12289 84.1456 84.16725 84.19091 84.22239 84.26736 84.31035 84.33583 84.36096 84.40309 84.44292 84.46124 84.47964 84.51967 84.56007 84.57937 84.59312 84.61685 84.64701 84.67996 84.71276 84.74237 84.77443 84.81454 84.8474 84.8577 84.86053 84.87113 84.88908 84.91404 84.94343 84.97469 85.0012 85.01635 85.02985 85.05134 85.07159 85.08125 85.0893 85.10469 85.12522 85.14873 85.17373 85.19872 85.21865 85.22842 85.234 85.24133 85.24689 85.24698 85.24714 85.25281 85.26132 85.27 85.28129 85.29769 85.31521 85.3299 85.33192 85.3116 85.2922 85.29717 85.31271 85.32487 85.33215 85.33281 85.33131 85.33195 85.33613 85.34497 85.35494 85.3624 85.35904 85.3368 -9999 -9999 -9999 -9999 -9999 -9999 -9999
-9999 -9999 -9999 -9999 -9999 82.56625 82.57063 82.57125 82.56844 82.56251 82.55458 82.54587 82.5379 82.53252 82.53072 82.53376 82.53656 82.53419 82.53581 82.5508 82.56303 82.55625 82.54689 82.55121 82.55962 82.56212 82.56594 82.57832 82.59186 82.59917 82.60445 82.61208 82.62091 82.63 82.63603 82.63586 82.63486 82.63872 82.64364 82.64584 82.65312 82.6733 82.68783 82.67793 82.65939 82.6479 82.64474 82.6508 82.6612 82.67085 82.67643 82.67503 82.67509 82.68544 82.69349 82.68711 82.67676 82.67332 82.67738 82.68955 82.7001 82.69917 82.69469 82.69457 82.6971 82.70041 82.70706 82.71958 82.73329 82.74377 82.75102 82.75546 82.76173 82.775 82.79133 82.80706 82.8252 82.8487 82.87502 82.90122 82.92093 82.9275 82.93938 82.97495 83.01806 83.05249 83.08028 83.10375 83.1234 83.14001 83.1562 83.175 83.20223 83.24373 83.29243 83.34119 83.39059 83.44119 83.48311 83.5062 83.52909 83.56995 83.6235 83.68413 83.73902 83.77538 83.80288 83.83123 83.8634 83.90248 83.94901 84.00372 84.05433 84.08872 84.1128 84.13248 84.15373 84.18246 84.21767 84.25829 84.29664 84.32497 84.35143 84.38415 84.41598 84.43999 84.46753 84.50996 84.5509 84.57375 84.58874 84.60623 84.63104 84.66788 84.70518 84.73122 84.75605 84.78953 84.81958 84.8337 84.84128 84.85122 84.8689 84.89956 84.93653 84.9733 85.0031 85.01915 85.03001 85.04416 85.06133 85.08124 85.10248 85.12376 85.14401 85.16249 85.17873 85.19248 85.20533 85.21873 85.23356 85.2504 85.26219 85.26167 85.25793 85.25998 85.26542 85.27166 85.2827 85.30248 85.3229 85.33583 85.33833 85.32753 85.3176 85.32294 85.33495 85.34542 85.35356 85.35873 85.36022 85.35706 85.3572 85.36831 85.37865 85.37627 85.36439 85.34628 -9999 -9999 -9999 -9999 -9999 -9999 -9999
-9999 -9999 -9999 -9999 -9999 82.56094 82.56116 82.56251 82.56007 82.5491 82.53485 82.52283 82.51484 82.51283 82.51498 82.51957 82.52228 82.51865 82.51901 82.53361 82.54548 82.5374 82.52394 82.51952 82.52398 82.53693 82.55354 82.56895 82.57957 82.58199 82.58334 82.59105 82.60093 82.60907 82.61244 82.60812 82.60699 82.61976 82.63388 82.63655 82.63868 82.651 82.66162 82.65835 82.64518 82.62618 82.61272 82.61638 82.62776 82.63773 82.64389 82.64419 82.64458 82.65112 82.65533 82.64842 82.64056 82.64154 82.65065 82.66693 82.68176 82.68626 82.68405 82.67877 82.67581 82.68084 82.68983 82.69897 82.70698 82.71282 82.71772 82.72314 82.73216 82.74799 82.76602 82.78143 82.79638 82.81277 82.83691 82.87473 82.90826 82.91917 82.92924 82.9603 82.99833 83.02935 83.05628 83.08219 83.10075 83.10596 83.11391 83.14088 83.18057 83.2262 83.27535 83.32526 83.37403 83.41964 83.45428 83.47001 83.49389 83.5531 83.62653 83.69315 83.74366 83.76884 83.78687 83.81622 83.85223 83.89028 83.93528 83.99213 84.04519 84.0787 84.10015 84.11685 84.13892 84.17629 84.21832 84.25415 84.28573 84.31507 84.34176 84.36541 84.3914 84.42527 84.464 84.50434 84.54131 84.56966 84.58952 84.60094 84.61829 84.656 84.69521 84.71696 84.73373 84.75792 84.78348 84.80447 84.82049 84.83126 84.84838 84.8836 84.92776 84.97174 85.00799 85.02905 85.03973 85.0449 85.05616 85.08518 85.1189 85.14425 85.16146 85.17082 85.17596 85.18053 85.18898 85.20583 85.22796 85.25216 85.2699 85.2725 85.26883 85.26781 85.27057 85.27823 85.29092 85.30885 85.32673 85.33937 85.34647 85.34782 85.34805 85.35195 85.35835 85.36602 85.37503 85.38528 85.38966 85.38082 85.37415 85.38486 85.39379 85.38159 85.36228 85.35002 -9999 -9999 -9999 -9999 -9999 -9999 -9999
-9999 -9999 -9999 -9999 -9999 82.5475 82.54158 82.53873 82.53566 82.52875 82.52023 82.51209 82.50646 82.50542 82.50708 82.50958 82.50916 82.50211 82.50019 82.5154 82.52803 82.51834 82.50383 82.50187 82.50874 82.52065 82.53455 82.54747 82.55656 82.55876 82.55978 82.56544 82.57455 82.58625 82.59447 82.59335 82.59218 82.60042 82.60941 82.6104 82.61034 82.61581 82.62199 82.62371 82.62013 82.61001 82.60199 82.60458 82.6124 82.62 82.6254 82.62667 82.62687 82.62917 82.62811 82.61836 82.60905 82.6096 82.61778 82.63161 82.64565 82.65414 82.65659 82.65208 82.64877 82.65455 82.66523 82.67626 82.68591 82.6925 82.69946 82.71041 82.72186 82.73042 82.73853 82.74877 82.76032 82.77245 82.79637 82.84285 82.88842 82.90916 82.92634 82.96122 82.99777 83.01998 83.03746 83.05999 83.07591 83.07378 83.07933 83.1187 83.17377 83.2262 83.27402 83.31497 83.35561 83.40246 83.44403 83.46874 83.49777 83.55245 83.61528 83.66868 83.70967 83.735 83.75964 83.79873 83.84683 83.89869 83.9484 83.98995 84.024 84.05125 84.07407 84.09497 84.12321 84.16786 84.21486 84.24997 84.27759 84.30206 84.32738 84.35747 84.39341 84.4362 84.47594 84.50249 84.52686 84.55998 84.59061 84.60748 84.62465 84.65621 84.68861 84.70831 84.72385 84.74373 84.76862 84.79915 84.8257 84.83876 84.85216 84.87996 84.9184 84.96372 85.00475 85.0304 85.0452 85.05374 85.06541 85.08955 85.11696 85.13831 85.15314 85.16082 85.16636 85.17458 85.18811 85.20957 85.23283 85.25165 85.26373 85.26668 85.26572 85.26625 85.27312 85.29121 85.3102 85.31956 85.3278 85.34332 85.35924 85.36876 85.37217 85.37 85.36843 85.37374 85.38405 85.39748 85.40511 85.39792 85.39064 85.3979 85.40449 85.395 85.37971 85.36873 -9999 -9999 -9999 -9999 -9999 -9999 -9999
-9999 -9999 -9999 -9999 -9999 82.52815 82.51924 82.51252 82.50839 82.50721 82.50702 82.50584 82.5036 82.50022 82.49788 82.49876 82.49757 82.48898 82.48508 82.49801 82.50877 82.49831 82.48573 82.49016 82.50146 82.50948 82.5172 82.52761 82.53584 82.53699 82.53622 82.53867 82.54633 82.56124 82.57558 82.58147 82.58212 82.58075 82.57886 82.57795 82.57803 82.57909 82.58163 82.58617 82.59077 82.59355 82.59599 82.59959 82.60355 82.60709 82.6097 82.61085 82.61025 82.60763 82.60211 82.59284 82.58531 82.58501 82.5896 82.59678 82.60661 82.61919 82.62837 82.62804 82.62631 82.63136 82.64116 82.65366 82.66599 82.67532 82.68565 82.70103 82.71266 82.71169 82.70927 82.71658 82.72852 82.74001 82.76279 82.80862 82.85624 82.88428 82.90939 82.9483 82.98428 83.00053 83.00999 83.02563 83.0389 83.04118 83.05569 83.10576 83.17014 83.22714 83.27231 83.30093 83.33054 83.37872 83.42971 83.46768 83.50387 83.54953 83.5944 83.62814 83.65797 83.69124 83.73115 83.78091 83.83932 83.90523 83.959 83.98094 83.99189 84.01281 84.04016 84.0703 84.10802 84.15808 84.20721 84.24206 84.26694 84.28615 84.30997 84.34871 84.39555 84.4436 84.48196 84.49958 84.51614 84.55122 84.58958 84.61591 84.63777 84.66278 84.68636 84.70394 84.71999 84.73895 84.76487 84.80183 84.83552 84.85155 84.86193 84.87874 84.90655 84.94995 84.99418 85.02436 85.04467 85.05936 85.07334 85.09155 85.10999 85.12468 85.13618 85.145 85.15601 85.17405 85.19627 85.21986 85.23966 85.25041 85.25591 85.2599 85.26364 85.26842 85.28115 85.30869 85.33235 85.33333 85.33172 85.34768 85.36823 85.3803 85.38366 85.37813 85.37344 85.37936 85.39091 85.40311 85.41114 85.41021 85.40827 85.41331 85.41715 85.41157 85.39999 85.38594 -9999 -9999 -9999 -9999 -9999 -9999 -9999
-9999 -9999 -9999 -9999 -9999 82.50503 82.50156 82.49627 82.49156 82.49001 82.49155 82.49625 82.49708 82.48711 82.47816 82.48207 82.48772 82.48376 82.47928 82.48331 82.4858 82.47646 82.46882 82.47623 82.48964 82.49979 82.50983 82.5229 82.53052 82.52419 82.515 82.51418 82.52071 82.53376 82.54907 82.56248 82.56834 82.56084 82.55097 82.54957 82.55169 82.55207 82.55325 82.55751 82.56373 82.57085 82.57821 82.58543 82.58968 82.58835 82.5854 82.58503 82.58285 82.57457 82.56733 82.56791 82.57209 82.57542 82.57687 82.57541 82.57949 82.5975 82.61561 82.62 82.61896 82.62083 82.62562 82.63334 82.643 82.65376 82.6656 82.67876 82.68628 82.68124 82.67847 82.69247 82.71249 82.72749 82.74561 82.77494 82.80659 82.83129 82.85703 82.89211 82.92555 82.94714 82.95985 82.96755 82.97953 83.00585 83.04591 83.09953 83.15804 83.21244 83.25405 83.27372 83.29408 83.33742 83.38865 83.43209 83.47524 83.52582 83.5686 83.58877 83.60963 83.65498 83.7112 83.76497 83.82184 83.88741 83.93781 83.94873 83.94973 83.96996 84.00407 84.0462 84.09476 84.14786 84.19528 84.22666 84.24851 84.2675 84.29122 84.32748 84.3714 84.41833 84.46067 84.49084 84.51768 84.54996 84.58404 84.61623 84.64529 84.66998 84.68935 84.70249 84.71572 84.7354 84.76216 84.79664 84.82851 84.8475 84.85936 84.87 84.89029 84.93123 84.97706 85.01205 85.03645 85.0504 85.06428 85.08831 85.11133 85.12208 85.12781 85.13583 85.15102 85.17831 85.20707 85.22665 85.24001 85.24999 85.25864 85.2679 85.27761 85.28747 85.30277 85.32874 85.34934 85.34877 85.34406 85.35249 85.365 85.37249 85.37627 85.37751 85.38156 85.39372 85.40594 85.40999 85.41239 85.41957 85.42876 85.43705 85.43831 85.42627 85.40658 85.38501 -9999 -9999 -9999 -9999 -9999 -9999 -9999
-9999 -9999 -9999 -9999 -9999 82.48165 82.48551 82.48406 82.48009 82.47624 82.47593 82.48251 82.48449 82.47054 82.45898 82.46833 82.48215 82.48407 82.47931 82.47313 82.46581 82.4575 82.45456 82.46317 82.47659 82.48799 82.49992 82.51507 82.52225 82.51024 82.49507 82.49303 82.49942 82.5097 82.52315 82.53922 82.54758 82.53806 82.52546 82.52447 82.52884 82.53207 82.53447 82.53613 82.53886 82.54425 82.55291 82.56519 82.57363 82.57065 82.56292 82.55732 82.55109 82.5417 82.53717 82.54579 82.55779 82.56358 82.56358 82.55832 82.55942 82.5784 82.59966 82.60726 82.60817 82.60905 82.61155 82.6172 82.62492 82.63376 82.64275 82.65111 82.65485 82.65029 82.65057 82.66913 82.69485 82.71653 82.73339 82.74445 82.75613 82.77444 82.7998 82.83204 82.86504 82.89243 82.90967 82.91265 82.92607 82.9751 83.03646 83.08717 83.13326 83.18061 83.21946 83.23996 83.26032 83.29871 83.34554 83.3909 83.43999 83.49775 83.54482 83.56155 83.58037 83.63371 83.69916 83.75435 83.80699 83.86496 83.90816 83.9166 83.91766 83.93905 83.97702 84.02776 84.08342 84.136 84.1796 84.2082 84.22916 84.24966 84.2736 84.30478 84.34231 84.38541 84.43055 84.47404 84.51245 84.54218 84.57089 84.60652 84.64155 84.6684 84.68803 84.70124 84.71572 84.73915 84.76685 84.79416 84.819 84.83936 84.85515 84.86625 84.88375 84.91872 84.96059 84.99873 85.02674 85.03835 85.05085 85.08173 85.1125 85.12458 85.12921 85.13771 85.15462 85.18457 85.21381 85.22863 85.23756 85.24905 85.26288 85.27873 85.29442 85.30769 85.32249 85.34268 85.35942 85.36375 85.36413 85.36909 85.37389 85.37409 85.37486 85.38158 85.39279 85.40717 85.41772 85.4175 85.41818 85.43143 85.44733 85.45582 85.4524 85.43252 85.40456 85.37691 -9999 -9999 -9999 -9999 -9999 -9999 -9999
-9999 -9999 -9999 -9999 -9999 82.46167 82.46793 82.47002 82.46876 82.46501 82.4622 82.46376 82.46345 82.45502 82.45156 82.46622 82.48342 82.4875 82.48167 82.46918 82.45548 82.44605 82.44438 82.45395 82.46568 82.47041 82.47491 82.48584 82.49274 82.48505 82.47533 82.47625 82.48407 82.495 82.5061 82.51439 82.51668 82.50982 82.50206 82.50169 82.50698 82.51624 82.52292 82.52043 82.51584 82.51627 82.52419 82.54209 82.55823 82.56084 82.55251 82.53587 82.5216 82.52043 82.52516 82.52856 82.53087 82.53233 82.53377 82.53625 82.54147 82.55126 82.56178 82.56919 82.57535 82.58212 82.59188 82.60706 82.61957 82.62125 82.62048 82.62564 82.63074 82.62981 82.63017 82.63918 82.65823 82.68873 82.71458 82.7196 82.72157 82.73833 82.76781 82.80788 82.84591 82.86916 82.88178 82.88792 82.90644 82.9562 83.01384 83.05584 83.09145 83.13001 83.16905 83.20622 83.24341 83.28247 83.32518 83.37329 83.4259 83.48204 83.52985 83.55747 83.58557 83.63493 83.69432 83.75244 83.80744 83.85745 83.89372 83.9075 83.91592 83.93623 83.97028 84.01994 84.07401 84.12122 84.16061 84.19125 84.21561 84.23624 84.25947 84.29164 84.32955 84.36997 84.41012 84.44707 84.48147 84.51376 84.54717 84.58498 84.62093 84.64875 84.6728 84.69747 84.72465 84.7562 84.78528 84.80498 84.82123 84.83997 84.85998 84.87997 84.90089 84.92371 84.95206 84.98956 85.02185 85.03458 85.04582 85.07372 85.10497 85.12623 85.14153 85.15497 85.16998 85.18998 85.20989 85.22458 85.23605 85.24625 85.25958 85.2804 85.30092 85.31332 85.32468 85.34207 85.36082 85.37624 85.39123 85.4087 85.4193 85.41371 85.40437 85.40374 85.40717 85.40999 85.41499 85.42497 85.43777 85.45121 85.45936 85.45627 85.44379 85.42379 85.39909 85.37253 -9999 -9999 -9999 -9999 -9999 -9999 -9999
-9999 -9999 -9999 -9999 -9999 82.44811 82.45242 82.4553 82.45567 82.45229 82.44751 82.44356 82.44142 82.44219 82.44903 82.4652 82.47936 82.48022 82.47144 82.45689 82.44249 82.43421 82.4336 82.442 82.44999 82.44792 82.44518 82.45101 82.45726 82.45544 82.4535 82.45948 82.46946 82.47969 82.48667 82.48711 82.48399 82.48064 82.47852 82.47916 82.4855 82.50028 82.51109 82.5053 82.49437 82.48957 82.49496 82.51434 82.53501 82.54397 82.53875 82.51701 82.49888 82.50479 82.51552 82.51199 82.50368 82.50024 82.50303 82.51361 82.52303 82.52218 82.52021 82.52601 82.53663 82.54872 82.56558 82.59019 82.60781 82.60377 82.59499 82.59876 82.60707 82.6122 82.61437 82.61408 82.62469 82.65963 82.69307 82.69885 82.6986 82.71381 82.74467 82.79108 82.83317 82.85069 82.859 82.87359 82.89935 82.94141 82.98666 83.02209 83.0526 83.08314 83.12082 83.17288 83.22677 83.27006 83.312 83.36169 83.41409 83.4639 83.51008 83.55135 83.59182 83.63543 83.68522 83.74431 83.80053 83.84186 83.87206 83.89531 83.91574 83.93779 83.96903 84.01713 84.06722 84.10432 84.13545 84.16745 84.19625 84.21745 84.24155 84.27873 84.32018 84.35706 84.38921 84.41636 84.4451 84.48207 84.52226 84.56091 84.5957 84.62434 84.65388 84.69121 84.73106 84.76808 84.79677 84.81155 84.82293 84.84144 84.8653 84.89267 84.91675 84.93062 84.94769 84.98143 85.01504 85.03177 85.04582 85.07153 85.10271 85.13311 85.15848 85.17468 85.18485 85.19228 85.20263 85.22155 85.24046 85.25061 85.26225 85.2854 85.30815 85.31843 85.32649 85.34248 85.36327 85.3856 85.41035 85.43841 85.45621 85.45032 85.43594 85.42846 85.42281 85.41408 85.41486 85.43786 85.46404 85.47414 85.4709 85.45689 85.43832 85.42126 85.40283 85.38001 -9999 -9999 -9999 -9999 -9999 -9999 -9999
-9999 -9999 -9999 -9999 -9999 82.44416 82.4426 82.44125 82.43885 82.43419 82.42905 82.42542 82.42603 82.43375 82.44458 82.45457 82.45785 82.44832 82.43378 82.42163 82.41441 82.41415 82.41751 82.42081 82.42262 82.42122 82.42113 82.42668 82.43123 82.42835 82.42749 82.43835 82.45049 82.45377 82.45384 82.45644 82.45814 82.45519 82.45258 82.45499 82.46376 82.47997 82.49146 82.48586 82.47406 82.4671 82.46809 82.48042 82.49549 82.50504 82.5063 82.49709 82.48772 82.48872 82.49266 82.49185 82.48886 82.48605 82.48692 82.49498 82.50148 82.49753 82.49312 82.49834 82.50819 82.51793 82.53164 82.55376 82.57056 82.56878 82.56264 82.56689 82.57729 82.58975 82.60047 82.60542 82.61635 82.64497 82.67271 82.68083 82.68282 82.69209 82.71379 82.75332 82.79166 82.81025 82.82432 82.84978 82.88355 82.92289 82.96382 83.00245 83.03626 83.06247 83.0932 83.14034 83.19375 83.24286 83.2904 83.33873 83.38554 83.42873 83.47166 83.51813 83.56554 83.61185 83.66041 83.71498 83.76373 83.79492 83.82098 83.85369 83.88842 83.91994 83.95841 84.01369 84.06371 84.08623 84.10125 84.12875 84.15932 84.18377 84.21254 84.25663 84.3012 84.33167 84.35753 84.38831 84.42404 84.46454 84.5058 84.54371 84.57811 84.60872 84.64153 84.68245 84.72342 84.75624 84.78059 84.79626 84.81174 84.83581 84.86247 84.88583 84.90611 84.92374 84.94373 84.97121 84.99967 85.02247 85.04747 85.08247 85.11964 85.15125 85.17372 85.18374 85.18697 85.18917 85.19936 85.22662 85.25571 85.27122 85.2844 85.30621 85.32708 85.33706 85.34498 85.3596 85.37643 85.39124 85.40655 85.42496 85.43941 85.44249 85.44064 85.44 85.43784 85.43124 85.43449 85.4616 85.48969 85.49541 85.48793 85.47623 85.46188 85.4463 85.42841 85.40754 -9999 -9999 -9999 -9999 -9999 -9999 -9999
-9999 -9999 -9999 -9999 -9999 82.43832 82.43485 82.43021 82.42382 82.415 82.40809 82.40741 82.41233 82.4224 82.43182 82.43501 82.42953 82.41317 82.39643 82.3901 82.39088 82.39541 82.39954 82.39895 82.39687 82.39637 82.39913 82.40675 82.41267 82.41022 82.4104 82.42428 82.43629 82.43096 82.42387 82.43079 82.43896 82.43578 82.43085 82.43374 82.44344 82.45872 82.46977 82.46656 82.45747 82.45073 82.44806 82.45102 82.45709 82.46368 82.4695 82.47366 82.47359 82.46706 82.46204 82.46688 82.47314 82.47265 82.47108 82.47424 82.47771 82.47688 82.47569 82.4779 82.48277 82.48935 82.49951 82.51501 82.52872 82.53377 82.53558 82.53986 82.54898 82.56557 82.58332 82.59612 82.6097 82.62975 82.64925 82.66092 82.66789 82.67311 82.68497 82.71171 82.74174 82.76336 82.78558 82.81789 82.85593 82.89572 82.93777 82.98309 83.02339 83.05031 83.07613 83.11307 83.15866 83.21025 83.26107 83.304 83.34375 83.38461 83.42842 83.47651 83.52721 83.5787 83.62898 83.67625 83.71486 83.7397 83.76465 83.80406 83.84953 83.89306 83.94037 83.99712 84.04312 84.05788 84.06611 84.09223 84.12572 84.15561 84.19147 84.24285 84.29004 84.31324 84.33216 84.36653 84.40917 84.45278 84.49457 84.53184 84.56592 84.59809 84.63161 84.66963 84.70522 84.73122 84.7518 84.77091 84.7932 84.82307 84.85154 84.86948 84.8867 84.91322 84.94219 84.96685 84.99069 85.01717 85.05036 85.09433 85.13699 85.16623 85.18225 85.18531 85.18399 85.18687 85.20094 85.23318 85.26827 85.29071 85.30753 85.3256 85.34193 85.35342 85.36406 85.37779 85.38992 85.39562 85.4 85.40813 85.41859 85.43 85.44101 85.45033 85.45595 85.45606 85.46249 85.48715 85.51096 85.51457 85.50796 85.50092 85.49104 85.47562 85.4576 -9999 -9999 -9999 -9999 -9999 -9999 -9999 -9999
-9999 -9999 -9999 -9999 82.41116 82.41917 82.42551 82.42459 82.41594 82.39919 82.38583 82.38751 82.39539 82.40085 82.4045 82.40705 82.40534 82.39585 82.38741 82.38876 82.39155 82.3875 82.38313 82.38498 82.38604 82.37915 82.37529 82.38541 82.39946 82.40749 82.41532 82.42873 82.43594 82.42502 82.41334 82.41831 82.42656 82.42458 82.41991 82.41999 82.42625 82.43997 82.45177 82.4521 82.44698 82.44251 82.43906 82.43709 82.43707 82.43959 82.44258 82.44418 82.44218 82.43436 82.4294 82.43559 82.44342 82.4429 82.44122 82.44538 82.45262 82.46001 82.46291 82.45669 82.4528 82.46293 82.47852 82.49125 82.5031 82.51624 82.52593 82.5275 82.53001 82.54247 82.55794 82.56914 82.58125 82.59911 82.61845 82.63455 82.6475 82.65708 82.66769 82.68375 82.70354 82.72562 82.75059 82.77938 82.81351 82.85498 82.90123 82.94992 82.99469 83.02872 83.05978 83.09538 83.13592 83.18161 83.22478 83.25751 83.29182 83.34 83.39383 83.44559 83.49713 83.5506 83.60008 83.63998 83.67218 83.69869 83.72781 83.76744 83.81497 83.86742 83.91685 83.95493 83.98511 84.01033 84.03812 84.07539 84.11601 84.15371 84.19715 84.25492 84.30405 84.32124 84.33022 84.35456 84.39155 84.43829 84.48549 84.52372 84.55685 84.58871 84.61998 84.65121 84.68001 84.70376 84.72527 84.74749 84.77267 84.80332 84.83256 84.85374 84.87613 84.90914 84.94507 84.97623 85.0031 85.02625 85.05403 85.09495 85.1359 85.16372 85.17906 85.18251 85.18354 85.19165 85.20821 85.23455 85.2645 85.29165 85.31321 85.32625 85.33697 85.35167 85.36749 85.38165 85.39322 85.40125 85.41092 85.42751 85.44369 85.45251 85.45967 85.47122 85.48105 85.48289 85.48752 85.50539 85.52415 85.53123 85.52846 85.51751 85.5022 85.48627 85.47188 -9999 -9999 -9999 -9999 -9999 -9999 -9999 -9999
-9999 -9999 -9999 -9999 82.38017 82.39402 82.41007 82.41373 82.40543 82.38544 82.36894 82.37105 82.37871 82.37887 82.37699 82.37876 82.38177 82.38381 82.38747 82.39545 82.39693 82.38106 82.36604 82.37007 82.37511 82.36282 82.35326 82.36637 82.38857 82.40608 82.41936 82.42896 82.42975 82.4168 82.40378 82.40459 82.40974 82.40991 82.40765 82.40562 82.40845 82.42059 82.43209 82.43269 82.43049 82.43332 82.43506 82.42938 82.42247 82.42043 82.41912 82.41451 82.40784 82.40067 82.39795 82.40501 82.41306 82.41357 82.41345 82.41988 82.43019 82.44164 82.446 82.4348 82.42699 82.44132 82.46181 82.4722 82.48148 82.49885 82.51333 82.51419 82.51283 82.52094 82.53217 82.54033 82.55118 82.57059 82.59278 82.61175 82.62773 82.64081 82.65193 82.66186 82.67574 82.69858 82.72497 82.74953 82.77882 82.81965 82.86688 82.91559 82.96201 83.00228 83.03974 83.07768 83.11594 83.15443 83.19009 83.21964 83.25523 83.30869 83.3675 83.41883 83.46755 83.51826 83.56449 83.59999 83.63079 83.66342 83.69854 83.73717 83.78295 83.83984 83.88818 83.90831 83.92491 83.96242 84.01138 84.06181 84.1102 84.15276 84.19885 84.25776 84.30643 84.32188 84.32609 84.34113 84.37081 84.41893 84.47061 84.51122 84.54427 84.57339 84.60132 84.63058 84.65874 84.68311 84.70616 84.73028 84.75629 84.78487 84.8135 84.83956 84.86837 84.90527 84.94502 84.98247 85.01302 85.03217 85.05224 85.08559 85.12077 85.14621 85.16273 85.17092 85.17901 85.19508 85.21529 85.23571 85.25934 85.28902 85.31435 85.32468 85.33227 85.34936 85.3689 85.38373 85.39703 85.41185 85.43117 85.45789 85.47924 85.48261 85.48267 85.49437 85.50621 85.50689 85.50728 85.51851 85.53272 85.54197 85.54105 85.52471 85.50284 85.48533 85.47407 -9999 -9999 -9999 -9999 -9999 -9999 -9999 -9999
-9999 -9999 -9999 -9999 82.35867 82.37042 82.38398 82.38712 82.38242 82.37253 82.36397 82.36333 82.36574 82.36626 82.36397 82.35793 82.3556 82.36439 82.3775 82.38813 82.38747 82.36671 82.34597 82.34543 82.34898 82.3404 82.33643 82.35353 82.37697 82.39188 82.39976 82.40211 82.39817 82.38713 82.37681 82.37503 82.37753 82.38003 82.3819 82.38253 82.38627 82.39751 82.40533 82.3988 82.39577 82.41418 82.42989 82.41878 82.40025 82.39378 82.39273 82.39044 82.38528 82.37566 82.37127 82.38188 82.39578 82.40125 82.40386 82.40916 82.41438 82.41669 82.41607 82.41253 82.41376 82.42749 82.4425 82.44753 82.45169 82.46419 82.47753 82.4842 82.49012 82.50125 82.51417 82.52542 82.53968 82.56165 82.58477 82.60249 82.61469 82.62126 82.62752 82.63876 82.65687 82.68373 82.71435 82.74372 82.77434 82.80872 82.84779 82.89247 82.93699 82.9754 83.01187 83.05042 83.08916 83.12624 83.1656 83.21121 83.259 83.30495 83.34872 83.38999 83.43063 83.4725 83.51314 83.55002 83.58626 83.625 83.66531 83.70624 83.75207 83.80706 83.85468 83.87835 83.8978 83.93289 83.97999 84.03539 84.08821 84.1275 84.16595 84.21625 84.26065 84.2813 84.29405 84.31501 84.34687 84.39248 84.44218 84.48624 84.52156 84.54501 84.57032 84.61123 84.65247 84.67873 84.69936 84.72372 84.74998 84.77623 84.80228 84.8279 84.85749 84.89539 84.93477 84.96874 84.99657 85.01751 85.03875 85.06749 85.09594 85.11626 85.1319 85.14627 85.16375 85.18874 85.21633 85.24164 85.26784 85.29787 85.32381 85.33748 85.34789 85.36413 85.38184 85.39664 85.41195 85.43121 85.45257 85.47414 85.48968 85.49292 85.49603 85.51122 85.52477 85.52291 85.51958 85.52872 85.54009 85.54333 85.53741 85.52128 85.50034 85.48002 85.4669 -9999 -9999 -9999 -9999 -9999 -9999 -9999 -9999
-9999 -9999 -9999 -9999 82.34608 82.35168 82.35786 82.35899 82.35816 82.35876 82.35903 82.35741 82.35564 82.35564 82.35304 82.34355 82.33825 82.34811 82.36297 82.37248 82.37096 82.35252 82.33242 82.32584 82.32504 82.32219 82.32544 82.34291 82.36209 82.37054 82.371 82.36649 82.35934 82.35222 82.34596 82.34155 82.34145 82.34789 82.3558 82.35979 82.3641 82.37279 82.37581 82.36286 82.35829 82.38667 82.41239 82.40015 82.37595 82.36617 82.36494 82.36658 82.36543 82.35589 82.35077 82.36274 82.37991 82.39019 82.39579 82.39883 82.39739 82.3894 82.38368 82.38918 82.40053 82.41261 82.42052 82.41961 82.41834 82.42554 82.43753 82.45095 82.46534 82.48039 82.49652 82.51393 82.53313 82.55445 82.57417 82.58841 82.59618 82.59627 82.59998 82.61874 82.64536 82.67281 82.7027 82.73685 82.77041 82.79874 82.82984 82.87182 82.91391 82.94495 82.97398 83.00962 83.04955 83.09087 83.13973 83.20184 83.26003 83.29717 83.32597 83.35938 83.39356 83.42501 83.45874 83.50021 83.54578 83.59203 83.63722 83.67933 83.72202 83.76869 83.81345 83.84995 83.88173 83.91194 83.94953 84.0032 84.05628 84.09219 84.12364 84.16375 84.20237 84.22971 84.25459 84.28593 84.32381 84.36807 84.4149 84.46027 84.49711 84.5181 84.54359 84.59371 84.64462 84.67229 84.69137 84.71665 84.74352 84.76749 84.78983 84.81197 84.83896 84.87603 84.91374 84.94267 84.96758 84.99299 85.01914 85.04601 85.07016 85.0879 85.10519 85.1278 85.15475 85.18498 85.2168 85.24851 85.2793 85.3082 85.33305 85.35154 85.3665 85.38071 85.39474 85.40916 85.42568 85.44612 85.46443 85.47456 85.48146 85.48998 85.50217 85.51998 85.53275 85.5298 85.52607 85.53654 85.54713 85.54366 85.53185 85.51741 85.49908 85.47554 85.45757 -9999 -9999 -9999 -9999 -9999 -9999 -9999 -9999
-9999 -9999 -9999 -9999 82.34187 82.34125 82.34251 82.34374 82.34406 82.34249 82.34218 82.34626 82.3477 82.33961 82.33187 82.33459 82.34131 82.34561 82.34936 82.35435 82.35528 82.34668 82.33491 82.32627 82.32073 82.31833 82.32098 82.3306 82.34145 82.34773 82.34785 82.34044 82.33177 82.32835 82.32489 82.31628 82.3132 82.32663 82.34249 82.34666 82.34636 82.34872 82.34785 82.33751 82.33376 82.35245 82.37151 82.36833 82.35521 82.34419 82.3375 82.33752 82.33926 82.33794 82.33801 82.34418 82.35384 82.36456 82.37267 82.37456 82.37139 82.36417 82.3596 82.36414 82.37471 82.38789 82.39591 82.39086 82.38634 82.39626 82.41268 82.42792 82.44205 82.45542 82.47185 82.49538 82.51791 82.53122 82.54066 82.55122 82.56001 82.56371 82.575 82.60621 82.63966 82.65751 82.67403 82.70376 82.73742 82.76625 82.79901 82.84498 82.88702 82.90794 82.92399 82.95158 82.99107 83.04243 83.10091 83.16115 83.21503 83.25369 83.2878 83.32743 83.36371 83.38751 83.41451 83.46079 83.51682 83.5733 83.6236 83.66123 83.69265 83.72452 83.76159 83.80827 83.85456 83.88995 83.92561 83.97243 84.02091 84.06119 84.09746 84.13373 84.16776 84.19749 84.22785 84.26373 84.30589 84.35497 84.40371 84.44496 84.47936 84.50748 84.53779 84.5787 84.61855 84.64538 84.66874 84.69786 84.72666 84.74872 84.76714 84.785 84.8084 84.84375 84.88141 84.91209 84.93995 84.96957 84.99903 85.02663 85.05217 85.07539 85.10132 85.13498 85.16903 85.19625 85.22216 85.25247 85.28314 85.30998 85.33341 85.35374 85.37061 85.38374 85.39592 85.40999 85.42581 85.44331 85.45604 85.45748 85.46117 85.48039 85.50352 85.51874 85.52626 85.52625 85.52843 85.54248 85.55468 85.55125 85.53867 85.52335 85.50346 85.4771 85.45335 -9999 -9999 -9999 -9999 -9999 -9999 -9999 -9999
-9999 -9999 -9999 -9999 82.33579 82.33095 82.32947 82.33188 82.33282 82.3269 82.32299 82.33001 82.33387 82.32046 82.311 82.32681 82.34513 82.34314 82.33529 82.3361 82.34007 82.34167 82.33922 82.33105 82.32253 82.31906 82.31895 82.32047 82.32275 82.32487 82.32422 82.31821 82.31284 82.31413 82.31274 82.2993 82.29189 82.30862 82.32965 82.33501 82.33228 82.32908 82.32526 82.32065 82.31853 82.3222 82.32993 82.33991 82.34308 82.33034 82.31532 82.31168 82.31504 82.32095 82.32589 82.32637 82.32768 82.33512 82.34276 82.34481 82.34315 82.33982 82.33801 82.34094 82.34884 82.36189 82.37032 82.3644 82.36023 82.37395 82.39359 82.4071 82.41764 82.42844 82.44447 82.47063 82.49258 82.49597 82.49512 82.5044 82.51809 82.53043 82.55179 82.59258 82.62923 82.63815 82.64291 82.66719 82.70077 82.73342 82.77107 82.81966 82.86096 82.87669 82.88594 82.90791 82.94635 83.00499 83.06701 83.1156 83.15813 83.20188 83.24654 83.29185 83.32967 83.35189 83.3782 83.42838 83.49017 83.55112 83.60349 83.63958 83.66432 83.68272 83.71056 83.76363 83.82182 83.86497 83.90115 83.93844 83.9795 84.02705 84.07325 84.1102 84.14168 84.17155 84.20453 84.24529 84.29224 84.34372 84.39084 84.42467 84.45507 84.49186 84.52818 84.55718 84.58329 84.61094 84.64124 84.67529 84.70592 84.72594 84.7411 84.75719 84.77961 84.81374 84.85202 84.88686 84.91946 84.95101 84.98116 85.00947 85.03831 85.07007 85.10542 85.14507 85.18057 85.20352 85.22365 85.2507 85.27855 85.30093 85.32085 85.34125 85.36015 85.37563 85.38983 85.40498 85.41975 85.43281 85.44066 85.4398 85.44594 85.47475 85.50562 85.51781 85.52039 85.5225 85.52827 85.54185 85.55296 85.55126 85.53994 85.52222 85.49933 85.47253 85.44589 -9999 -9999 -9999 -9999 -9999 -9999 -9999 -9999
-9999 -9999 -9999 -9999 82.31752 82.31249 82.31033 82.31374 82.3172 82.315 82.31095 82.30876 82.30602 82.30045 82.30078 82.31603 82.33008 82.32691 82.31921 82.32001 82.325 82.32999 82.33115 82.32458 82.31689 82.31459 82.31521 82.31625 82.31365 82.30336 82.2939 82.29398 82.29989 82.30812 82.30849 82.29086 82.27636 82.28625 82.30491 82.31665 82.32105 82.3175 82.31189 82.31 82.30907 82.30625 82.31063 82.33123 82.34457 82.3271 82.30324 82.2975 82.30083 82.30418 82.30717 82.3096 82.31135 82.31251 82.31425 82.3179 82.3195 82.31499 82.31326 82.3229 82.33562 82.3429 82.34533 82.34335 82.34447 82.35624 82.3708 82.38044 82.38924 82.40168 82.41841 82.44042 82.45576 82.45248 82.44848 82.46121 82.4823 82.50289 82.52968 82.56911 82.60354 82.61503 82.62373 82.64998 82.68559 82.72247 82.76153 82.80371 82.84064 82.86375 82.88343 82.90995 82.94807 83.00246 83.05591 83.09122 83.12374 83.16869 83.21467 83.24994 83.28002 83.31002 83.34734 83.39955 83.45639 83.50791 83.55576 83.60209 83.63704 83.65127 83.67188 83.72617 83.78904 83.83495 83.86906 83.8962 83.9296 83.982 84.03687 84.07709 84.10891 84.13876 84.17537 84.22747 84.28183 84.32498 84.35839 84.38377 84.41096 84.44993 84.49001 84.51996 84.54793 84.58163 84.61874 84.65662 84.6879 84.70498 84.71844 84.73875 84.76623 84.80122 84.83955 84.87705 84.91164 84.94123 84.96809 84.99458 85.02488 85.06329 85.10258 85.13538 85.16334 85.18788 85.21249 85.24038 85.26479 85.27876 85.29122 85.31126 85.33496 85.35876 85.38091 85.39999 85.41488 85.42458 85.43156 85.43833 85.45299 85.48372 85.51403 85.5275 85.5303 85.52876 85.52719 85.53001 85.53217 85.52879 85.51771 85.49714 85.4725 85.44964 85.42678 -9999 -9999 -9999 -9999 -9999 -9999 -9999 -9999
-9999 -9999 -9999 -9999 82.29681 82.29346 82.29203 82.2947 82.29889 82.30219 82.3 82.28784 82.27792 82.28262 82.29359 82.30259 82.30711 82.30447 82.30072 82.30165 82.3052 82.30904 82.31084 82.30801 82.30473 82.30499 82.30757 82.3112 82.3068 82.28541 82.26755 82.27396 82.29012 82.30157 82.30103 82.28127 82.262 82.26289 82.27642 82.29476 82.30814 82.30656 82.30074 82.30136 82.30336 82.30167 82.30613 82.32661 82.33857 82.31758 82.28996 82.2823 82.28416 82.28509 82.28704 82.29176 82.29494 82.29208 82.28973 82.29436 82.29791 82.29221 82.29093 82.30781 82.32522 82.32565 82.32121 82.32428 82.33131 82.33896 82.34637 82.35283 82.36183 82.37695 82.39407 82.40883 82.41653 82.41218 82.41104 82.42809 82.45406 82.47938 82.50679 82.53916 82.5687 82.58793 82.60703 82.63655 82.67323 82.71404 82.75537 82.79372 82.82767 82.8556 82.88356 82.91746 82.95794 83.00557 83.04857 83.075 83.10075 83.14185 83.18259 83.20751 83.23262 83.27436 83.32367 83.37177 83.41618 83.45452 83.49656 83.55148 83.59873 83.61714 83.63821 83.69305 83.75645 83.80276 83.83548 83.85783 83.88676 83.93937 83.99727 84.04239 84.07847 84.10959 84.14816 84.20654 84.26305 84.29559 84.31666 84.3384 84.36666 84.40682 84.44961 84.48529 84.51847 84.55354 84.59119 84.63228 84.66586 84.68127 84.69427 84.72093 84.75537 84.79188 84.82957 84.86766 84.9024 84.92986 84.95445 84.98038 85.01136 85.0509 85.08867 85.11417 85.13557 85.16115 85.18939 85.21906 85.24277 85.25324 85.26265 85.28324 85.31078 85.34124 85.36996 85.39238 85.40856 85.41853 85.42856 85.44489 85.46612 85.49091 85.51411 85.53061 85.53843 85.53563 85.52751 85.51939 85.51141 85.50378 85.49209 85.47211 85.44832 85.42522 85.40274 -9999 -9999 -9999 -9999 -9999 -9999 -9999 -9999
-9999 -9999 -9999 -9999 82.28345 82.28124 82.28157 82.27999 82.27969 82.28372 82.28406 82.27253 82.26312 82.27 82.2817 82.28688 82.28697 82.28356 82.2792 82.27664 82.27576 82.27623 82.27845 82.28246 82.28699 82.29043 82.29391 82.29852 82.29479 82.27316 82.25563 82.26436 82.2806 82.28564 82.27911 82.26088 82.24406 82.24206 82.2524 82.27247 82.28906 82.28874 82.28481 82.29041 82.29937 82.30542 82.30891 82.31023 82.30397 82.28487 82.26411 82.25336 82.25238 82.26127 82.2705 82.27085 82.26833 82.26916 82.27176 82.27457 82.27586 82.27375 82.27677 82.2933 82.30782 82.30458 82.29832 82.30375 82.31289 82.31792 82.32217 82.32918 82.34007 82.35625 82.37154 82.37997 82.38407 82.38622 82.39312 82.41122 82.43478 82.45788 82.48136 82.50579 82.53098 82.55666 82.58319 82.61125 82.64493 82.68872 82.73743 82.7862 82.82375 82.83875 82.85337 82.88992 82.93749 82.98495 83.02592 83.0537 83.07812 83.1087 83.14092 83.16994 83.20557 83.25745 83.3087 83.3425 83.36983 83.40208 83.4415 83.49084 83.53696 83.56742 83.60218 83.66117 83.72433 83.77119 83.80656 83.83498 83.86674 83.91203 83.96359 84.01415 84.05923 84.09456 84.13087 84.17873 84.22401 84.25253 84.27557 84.30494 84.34185 84.38745 84.4334 84.47121 84.50092 84.52246 84.54874 84.59241 84.63313 84.64998 84.6637 84.69498 84.73402 84.77124 84.80746 84.84374 84.87754 84.90665 84.93465 84.96538 84.99727 85.0287 85.05959 85.08955 85.11572 85.13497 85.15524 85.18412 85.21336 85.23415 85.25311 85.27664 85.30321 85.33123 85.35767 85.37958 85.3981 85.41457 85.43144 85.45124 85.46905 85.47997 85.49125 85.50995 85.52719 85.53375 85.53158 85.52251 85.5097 85.49625 85.48313 85.47125 85.45191 85.4163 85.38033 -9999 -9999 -9999 -9999 -9999 -9999 -9999 -9999
-9999 -9999 -9999 -9999 82.27579 82.27219 82.27053 82.26251 82.2567 82.26188 82.26681 82.26043 82.2538 82.25813 82.26576 82.2691 82.26859 82.26453 82.25904 82.25405 82.2505 82.24906 82.251 82.25737 82.26461 82.26894 82.27226 82.27647 82.27388 82.25711 82.24368 82.2514 82.26334 82.26277 82.25387 82.24095 82.23022 82.22781 82.23425 82.24997 82.26402 82.2652 82.26437 82.27219 82.28427 82.29625 82.29928 82.28477 82.26407 82.24885 82.23665 82.22533 82.2233 82.23904 82.25353 82.2476 82.23853 82.24342 82.25101 82.24987 82.24696 82.24908 82.25771 82.27437 82.2864 82.28138 82.27435 82.28073 82.29095 82.29574 82.3003 82.3101 82.32286 82.33633 82.34689 82.35071 82.3543 82.36392 82.3786 82.39705 82.41726 82.43697 82.45739 82.4798 82.50352 82.52811 82.55307 82.57813 82.61002 82.6559 82.71002 82.76678 82.80693 82.81093 82.81478 82.85431 82.90997 82.96184 83.00436 83.03186 83.0519 83.0722 83.09795 83.13477 83.18132 83.23664 83.28466 83.3097 83.32911 83.36047 83.39891 83.43922 83.48035 83.52087 83.56812 83.62898 83.69012 83.73773 83.77779 83.81593 83.85298 83.88987 83.9322 83.98582 84.03867 84.07904 84.11346 84.14842 84.1815 84.20997 84.24038 84.27901 84.32435 84.37463 84.42207 84.4587 84.48188 84.48878 84.5023 84.54559 84.59257 84.61752 84.6388 84.67527 84.71691 84.75373 84.78733 84.81934 84.8497 84.87818 84.90906 84.9463 84.98034 85.00131 85.02384 85.06228 85.0972 85.10918 85.11825 85.1448 85.17961 85.21342 85.24361 85.26749 85.29004 85.31655 85.34233 85.36278 85.3826 85.40632 85.43006 85.44977 85.46182 85.46249 85.46524 85.48342 85.50542 85.51969 85.52381 85.51566 85.50005 85.4822 85.46842 85.46532 85.45165 85.40628 85.35873 -9999 -9999 -9999 -9999 -9999 -9999 -9999 -9999
-9999 -9999 -9999 -9999 82.2722 82.2625 82.25064 82.23499 82.22723 82.23872 82.25198 82.24918 82.24208 82.24251 82.24633 82.24959 82.25062 82.24794 82.24437 82.24292 82.24323 82.245 82.24551 82.24207 82.23855 82.23877 82.24092 82.2431 82.24043 82.22774 82.21723 82.22127 82.23036 82.23542 82.23624 82.23293 82.22803 82.22417 82.22334 82.22748 82.23325 82.23707 82.2397 82.24164 82.24536 82.25288 82.25769 82.25272 82.24206 82.22943 82.21849 82.21291 82.21448 82.22499 82.23195 82.22294 82.21229 82.2146 82.21819 82.21164 82.20485 82.20747 82.22086 82.2458 82.26417 82.2575 82.24712 82.25418 82.26726 82.275 82.2828 82.29625 82.30883 82.31419 82.31593 82.31795 82.32314 82.33454 82.35127 82.37205 82.39427 82.41497 82.43915 82.47163 82.49934 82.50916 82.51755 82.54124 82.57776 82.62498 82.67522 82.72124 82.75539 82.77005 82.78934 82.83745 82.8987 82.95747 83.00029 83.01373 83.01844 83.03494 83.06229 83.09911 83.14248 83.18916 83.2338 83.27127 83.30527 83.33997 83.37653 83.41622 83.45683 83.49622 83.5403 83.59492 83.65124 83.69994 83.74466 83.78868 83.82906 83.86246 83.89956 83.95081 84.00431 84.04833 84.08587 84.11999 84.15183 84.1825 84.21589 84.25623 84.30186 84.35119 84.39622 84.4287 84.44784 84.45248 84.46314 84.49992 84.54748 84.58993 84.63152 84.6762 84.71873 84.75372 84.7831 84.80873 84.83121 84.85125 84.87778 84.91998 84.95831 84.9733 84.98991 85.03285 85.07364 85.08333 85.08709 85.10994 85.14449 85.18291 85.21525 85.23169 85.24913 85.285 85.32204 85.34334 85.36102 85.3875 85.41426 85.43288 85.44449 85.45 85.45593 85.46873 85.48219 85.48997 85.4888 85.47507 85.45558 85.43755 85.42561 85.42505 85.41589 85.37881 85.33689 -9999 -9999 -9999 -9999 -9999 -9999 -9999 -9999
-9999 -9999 -9999 -9999 82.26566 82.25253 82.23248 82.21108 82.20136 82.21635 82.23432 82.23347 82.22617 82.22491 82.22751 82.23177 82.23447 82.23232 82.23056 82.23448 82.24073 82.24593 82.24423 82.22972 82.21412 82.20915 82.20978 82.2107 82.20809 82.1981 82.18916 82.1897 82.19681 82.2075 82.21735 82.22189 82.2215 82.21658 82.20948 82.20253 82.19985 82.20554 82.21137 82.20909 82.20447 82.20327 82.20702 82.21725 82.22276 82.21227 82.20026 82.20126 82.20724 82.21022 82.20815 82.19899 82.18951 82.18648 82.18388 82.17587 82.16924 82.17096 82.18501 82.21531 82.23926 82.23426 82.22373 82.2312 82.24644 82.25916 82.27026 82.28063 82.28658 82.28441 82.28105 82.28346 82.29087 82.30251 82.32001 82.345 82.37195 82.39531 82.42274 82.46194 82.49146 82.48982 82.48652 82.51122 82.55133 82.59415 82.63413 82.66573 82.69541 82.72969 82.77207 82.82619 82.88627 82.94652 82.98733 82.9891 82.98322 83.00124 83.03272 83.06718 83.10319 83.13936 83.18039 83.23093 83.28045 83.31842 83.35537 83.40185 83.44685 83.47936 83.51211 83.5578 83.60937 83.65968 83.70863 83.75611 83.79935 83.83552 83.87251 83.9183 83.96568 84.0074 84.04613 84.08467 84.1228 84.1603 84.19758 84.23507 84.27451 84.3176 84.35721 84.38625 84.40557 84.41596 84.42993 84.46 84.50404 84.55995 84.61768 84.66716 84.70873 84.7428 84.76975 84.79001 84.80613 84.82074 84.84399 84.88603 84.92538 84.94054 84.95616 84.99697 85.03719 85.05097 85.05798 85.07801 85.10825 85.14584 85.17745 85.18982 85.20699 85.2531 85.30128 85.32458 85.33984 85.36395 85.38966 85.40968 85.42554 85.43875 85.44774 85.45095 85.44991 85.44614 85.43756 85.4221 85.4043 85.38879 85.37775 85.37333 85.36497 85.34209 85.31299 -9999 -9999 -9999 -9999 -9999 -9999 -9999 -9999
-9999 -9999 -9999 -9999 82.24918 82.24251 82.22668 82.20419 82.18939 82.19663 82.20862 82.20795 82.20415 82.2071 82.21322 82.21917 82.22134 82.21627 82.21281 82.21999 82.2297 82.23373 82.22929 82.21335 82.19659 82.18958 82.18897 82.19124 82.19062 82.18127 82.17219 82.1725 82.17759 82.18293 82.1881 82.19295 82.19456 82.19041 82.18243 82.17249 82.16691 82.17164 82.17992 82.18458 82.18365 82.175 82.17034 82.18121 82.19102 82.18295 82.17249 82.17544 82.18279 82.18586 82.18426 82.17794 82.16979 82.16291 82.15863 82.15833 82.1599 82.16125 82.16917 82.19038 82.20996 82.21271 82.21146 82.21896 82.23306 82.25166 82.26322 82.25628 82.24446 82.24171 82.24435 82.24915 82.25784 82.27206 82.29375 82.32455 82.35644 82.38123 82.40437 82.43119 82.45277 82.46004 82.46967 82.49872 82.53382 82.56167 82.58745 82.61668 82.6538 82.70372 82.75776 82.80744 82.85531 82.90367 82.93909 82.94749 82.9519 82.97496 83.00822 83.04287 83.07777 83.11165 83.1485 83.19249 83.2365 83.27377 83.31618 83.37622 83.43057 83.45622 83.47689 83.51618 83.56625 83.61868 83.67113 83.72077 83.76842 83.81454 83.85798 83.89748 83.93214 83.96127 83.99244 84.03376 84.0818 84.13374 84.18069 84.21413 84.24251 84.27411 84.30638 84.3362 84.36189 84.38122 84.40157 84.42995 84.46874 84.51992 84.57304 84.61752 84.65617 84.69253 84.72213 84.74129 84.75819 84.78168 84.81059 84.8441 84.87575 84.89871 84.92095 84.94994 84.98013 85.00538 85.02731 85.04705 85.071 85.10542 85.13943 85.16251 85.18997 85.23745 85.28433 85.31 85.3254 85.34164 85.36188 85.38913 85.41353 85.42498 85.42503 85.41499 85.40115 85.38935 85.38123 85.37817 85.3739 85.36253 85.34766 85.33317 85.31874 85.30443 85.28485 -9999 -9999 -9999 -9999 -9999 -9999 -9999 -9999
-9999 -9999 -9999 -9999 82.2253 82.22803 82.22198 82.20284 82.18499 82.18292 82.18568 82.18232 82.1805 82.18813 82.19878 82.20613 82.2085 82.20406 82.20126 82.20844 82.2168 82.2175 82.21085 82.19709 82.18268 82.17394 82.17134 82.17522 82.1771 82.16867 82.1591 82.15782 82.15957 82.15929 82.15909 82.16113 82.16237 82.15947 82.15352 82.14531 82.1395 82.1405 82.14791 82.16105 82.16781 82.15617 82.14421 82.15032 82.15902 82.15503 82.14833 82.14919 82.15372 82.15811 82.15977 82.15592 82.14925 82.14218 82.13944 82.14561 82.15333 82.15517 82.15788 82.16829 82.18067 82.1895 82.19637 82.20323 82.21516 82.2375 82.24904 82.22881 82.20508 82.20634 82.21697 82.22103 82.22626 82.24017 82.26421 82.29942 82.33582 82.36301 82.38144 82.39159 82.40215 82.4222 82.44981 82.48342 82.51292 82.52845 82.54487 82.57713 82.62298 82.67962 82.73512 82.77713 82.81182 82.84493 82.87363 82.89451 82.91542 82.94447 82.97826 83.01385 83.04932 83.08323 83.1162 83.14938 83.18448 83.22338 83.27287 83.33929 83.39661 83.41838 83.43409 83.47275 83.52545 83.58276 83.63968 83.69092 83.74025 83.79155 83.83901 83.87717 83.90528 83.92283 83.94514 83.98749 84.04333 84.10587 84.16028 84.19153 84.21197 84.23372 84.25908 84.28996 84.32204 84.35062 84.37887 84.40999 84.44482 84.48437 84.52331 84.55659 84.58854 84.62408 84.65652 84.67934 84.70338 84.73901 84.77525 84.80058 84.8247 84.85683 84.88728 84.90596 84.92606 84.96095 84.99645 85.01876 85.03856 85.06657 85.09972 85.13499 85.17338 85.21623 85.25568 85.28401 85.30293 85.31383 85.32915 85.36098 85.39031 85.39763 85.38964 85.3727 85.35262 85.33537 85.32786 85.33752 85.34724 85.34035 85.32171 85.2966 85.27341 85.2606 -9999 -9999 -9999 -9999 -9999 -9999 -9999 -9999 -9999
-9999 -9999 -9999 -9999 82.19657 82.20459 82.20711 82.19545 82.18179 82.17833 82.17616 82.16627 82.15959 82.16708 82.17939 82.1871 82.19302 82.2 82.20593 82.20875 82.20876 82.20626 82.19907 82.18502 82.16909 82.15623 82.1498 82.15292 82.15659 82.1517 82.14262 82.13377 82.12952 82.13419 82.14063 82.14168 82.1398 82.13751 82.13409 82.12877 82.12272 82.1171 82.11794 82.13126 82.14188 82.13461 82.12533 82.13 82.13885 82.14208 82.14083 82.13626 82.13242 82.13335 82.13396 82.12919 82.12378 82.12252 82.12332 82.12418 82.12592 82.12941 82.13573 82.14604 82.15595 82.16106 82.1646 82.16981 82.18081 82.20168 82.21513 82.2038 82.19064 82.19873 82.20968 82.20502 82.19845 82.20377 82.22305 82.25834 82.29811 82.33083 82.35147 82.35503 82.35844 82.37875 82.40971 82.44501 82.47635 82.49541 82.51563 82.55039 82.59512 82.64498 82.69279 82.73125 82.7619 82.78627 82.80917 82.83542 82.86503 82.89793 82.93259 82.9675 83.00096 83.03128 83.06156 83.09499 83.13501 83.18498 83.23904 83.29124 83.33343 83.35751 83.38315 83.42999 83.49059 83.55744 83.62173 83.67455 83.71903 83.75833 83.79867 83.84624 83.88654 83.90499 83.92408 83.96621 84.02152 84.07996 84.13132 84.16541 84.18906 84.20917 84.23071 84.25874 84.29125 84.32624 84.36279 84.39996 84.43559 84.46748 84.49405 84.51376 84.53316 84.55877 84.58878 84.62128 84.65729 84.69791 84.73532 84.76168 84.78759 84.82373 84.85812 84.87876 84.89884 84.93165 84.96698 84.99458 85.01635 85.03417 85.05669 85.09251 85.13251 85.16753 85.19968 85.23125 85.25754 85.27378 85.28969 85.315 85.33771 85.34569 85.34347 85.33565 85.32128 85.29942 85.28533 85.29438 85.30707 85.3038 85.28613 85.25568 85.22476 85.20569 -9999 -9999 -9999 -9999 -9999 -9999 -9999 -9999 -9999
-9999 -9999 -9999 -9999 82.17051 82.17904 82.18581 82.18291 82.17696 82.17448 82.16949 82.15595 82.14653 82.15395 82.16656 82.17272 82.1791 82.1925 82.20322 82.20178 82.1952 82.19057 82.18382 82.17059 82.15528 82.14208 82.13423 82.13478 82.13783 82.13731 82.13078 82.11586 82.1058 82.11397 82.12577 82.12669 82.12296 82.12106 82.11955 82.11708 82.11147 82.10043 82.0948 82.1053 82.11647 82.1126 82.10625 82.10976 82.11931 82.13073 82.13582 82.12637 82.11382 82.10981 82.10755 82.10054 82.09515 82.09804 82.10072 82.09498 82.09035 82.09623 82.10894 82.12444 82.13533 82.1339 82.12992 82.13299 82.14285 82.15939 82.17323 82.17535 82.17696 82.18978 82.19868 82.18878 82.17573 82.1753 82.18947 82.21996 82.25772 82.29337 82.3175 82.32029 82.32041 82.33625 82.36487 82.40344 82.44139 82.46853 82.49448 82.52916 82.56787 82.60583 82.64344 82.68114 82.71226 82.73026 82.74767 82.77648 82.81313 82.85339 82.89273 82.92619 82.9554 82.98158 83.01019 83.04685 83.09298 83.15031 83.20495 83.24345 83.27385 83.30469 83.34359 83.39838 83.46417 83.53584 83.60233 83.65234 83.68884 83.71452 83.74722 83.80426 83.85963 83.8874 83.91039 83.95155 84.00089 84.04842 84.09135 84.12728 84.1572 84.18224 84.20582 84.23099 84.26172 84.30161 84.34469 84.38462 84.41916 84.44578 84.46432 84.4743 84.48479 84.50503 84.53528 84.57625 84.62082 84.66228 84.69824 84.72668 84.75517 84.79149 84.82765 84.85528 84.87971 84.90598 84.9347 84.96609 84.99229 85.00512 85.01992 85.05219 85.0888 85.1169 85.1432 85.1749 85.20535 85.22836 85.24651 85.26265 85.27583 85.28455 85.2906 85.29517 85.29084 85.26973 85.25047 85.25142 85.2578 85.25504 85.23955 85.20837 85.17375 85.14864 -9999 -9999 -9999 -9999 -9999 -9999 -9999 -9999 -9999
-9999 -9999 -9999 -9999 82.15459 82.15835 82.16195 82.16625 82.1677 82.16293 82.15509 82.14751 82.14656 82.15872 82.17186 82.17376 82.17094 82.16998 82.1696 82.16829 82.16573 82.16107 82.15489 82.14733 82.1407 82.13708 82.13459 82.13125 82.12968 82.13249 82.13177 82.11959 82.107 82.105 82.10752 82.10832 82.10793 82.10666 82.10532 82.10458 82.10064 82.08959 82.08324 82.09332 82.10228 82.09253 82.07956 82.07919 82.08914 82.10751 82.11914 82.1092 82.09295 82.08582 82.08137 82.0729 82.06525 82.06289 82.06214 82.05914 82.05935 82.06814 82.08372 82.10438 82.11847 82.1146 82.10625 82.1071 82.11445 82.12584 82.1354 82.13754 82.13991 82.15036 82.16015 82.16 82.15939 82.16749 82.18269 82.2033 82.22906 82.25958 82.28265 82.28627 82.28686 82.30126 82.33119 82.3787 82.42558 82.45374 82.47623 82.5062 82.53865 82.56828 82.59999 82.63826 82.66959 82.67996 82.69106 82.72417 82.77242 82.82912 82.88037 82.91248 82.9356 82.95998 82.9881 83.02248 83.06341 83.11118 83.16094 83.20745 83.25091 83.29122 83.33495 83.38869 83.44871 83.51118 83.56653 83.60501 83.6337 83.66003 83.69512 83.75081 83.80836 83.8496 83.88493 83.92498 83.96595 84.00369 84.03812 84.06866 84.09973 84.13494 84.16885 84.19536 84.22563 84.2704 84.31599 84.34876 84.37356 84.39585 84.41309 84.42339 84.4386 84.47123 84.51247 84.5537 84.59497 84.63619 84.67155 84.69496 84.71812 84.75243 84.79001 84.82251 84.84996 84.87251 84.89555 84.925 84.95412 84.97626 84.99934 85.03123 85.06403 85.09 85.11332 85.13829 85.16283 85.18455 85.20261 85.21578 85.22488 85.23018 85.23515 85.24275 85.2451 85.23461 85.22021 85.21128 85.20432 85.19629 85.18093 85.15259 85.12161 85.09872 -9999 -9999 -9999 -9999 -9999 -9999 -9999 -9999 -9999
-9999 -9999 -9999 -9999 82.14654 82.14427 82.14162 82.14758 82.15247 82.14645 82.13885 82.13896 82.14622 82.16019 82.17112 82.16938 82.1588 82.14337 82.13124 82.13081 82.13322 82.12943 82.12389 82.12078 82.12206 82.12949 82.13432 82.12781 82.12083 82.12427 82.12812 82.12251 82.11118 82.09804 82.08885 82.08949 82.09344 82.09437 82.09344 82.09187 82.08704 82.07624 82.07066 82.08131 82.0887 82.07302 82.05455 82.05342 82.06489 82.08408 82.09596 82.08576 82.06886 82.06096 82.056 82.04815 82.03948 82.0323 82.02874 82.03103 82.03789 82.04796 82.06297 82.0845 82.10005 82.09688 82.08789 82.08595 82.08929 82.09636 82.10131 82.09858 82.09647 82.10377 82.116 82.12904 82.14416 82.16257 82.17934 82.18935 82.20222 82.22735 82.25019 82.25582 82.25944 82.27615 82.309 82.36119 82.41077 82.43594 82.45285 82.47811 82.50629 82.53188 82.56001 82.59586 82.62432 82.62996 82.63879 82.67629 82.73444 82.80467 82.86652 82.89902 82.91825 82.94031 82.96751 83.00249 83.03972 83.07405 83.11517 83.1731 83.23397 83.2843 83.33121 83.38181 83.43231 83.47869 83.5183 83.54806 83.57572 83.60839 83.64931 83.70152 83.7562 83.8048 83.84825 83.88759 83.9224 83.95221 83.97953 84.00743 84.04093 84.08483 84.12818 84.15953 84.19177 84.23743 84.28092 84.30621 84.32337 84.34213 84.36059 84.37659 84.40169 84.44779 84.49713 84.53219 84.56383 84.60342 84.63987 84.66247 84.68421 84.71807 84.75594 84.78934 84.8175 84.83935 84.86024 84.88525 84.91355 84.94376 84.97572 85.00935 85.04102 85.0674 85.08916 85.1074 85.12456 85.1434 85.16109 85.17464 85.18234 85.18201 85.18082 85.18543 85.19094 85.19184 85.18552 85.1691 85.15044 85.13786 85.12296 85.09788 85.07161 85.05379 -9999 -9999 -9999 -9999 -9999 -9999 -9999 -9999 -9999
-9999 -9999 -9999 82.13749 82.14406 82.13876 82.13073 82.12917 82.12966 82.12792 82.12656 82.12834 82.13216 82.1371 82.14023 82.13871 82.13306 82.12334 82.11459 82.11166 82.1106 82.10732 82.10247 82.09649 82.09603 82.1075 82.11684 82.11002 82.09989 82.0996 82.10246 82.1021 82.09644 82.08377 82.07294 82.0729 82.07844 82.08414 82.08594 82.07958 82.06751 82.05207 82.04441 82.05543 82.06496 82.05295 82.04021 82.0479 82.06292 82.07209 82.07144 82.05712 82.04088 82.03457 82.0323 82.02791 82.02356 82.02126 82.02158 82.025 82.03093 82.03874 82.04935 82.06375 82.07456 82.07462 82.06905 82.06335 82.06112 82.06625 82.07072 82.0667 82.06407 82.07288 82.08855 82.10622 82.12479 82.14288 82.15596 82.15914 82.1673 82.19498 82.22298 82.2321 82.23966 82.26331 82.29861 82.34122 82.37898 82.40001 82.41656 82.44118 82.46927 82.4958 82.52155 82.54702 82.56682 82.57496 82.59031 82.63123 82.69024 82.75998 82.82207 82.85876 82.87996 82.89629 82.92085 82.96746 83.01559 83.04496 83.07626 83.12991 83.19278 83.25115 83.30624 83.35869 83.40311 83.43369 83.4616 83.49751 83.5365 83.57373 83.6164 83.67205 83.7266 83.76624 83.80088 83.8404 83.87637 83.89996 83.92406 83.96117 84.00519 84.04952 84.09227 84.1312 84.16894 84.2079 84.24347 84.27123 84.29268 84.30959 84.32684 84.34956 84.38112 84.42499 84.46626 84.48995 84.51188 84.5474 84.58815 84.62495 84.66123 84.69996 84.73623 84.76499 84.78995 84.81499 84.83904 84.86124 84.88252 84.90376 84.92992 84.96624 85.00266 85.0296 85.05021 85.06786 85.08555 85.1058 85.12511 85.13955 85.14566 85.13957 85.13138 85.13086 85.13467 85.13963 85.13734 85.12005 85.1 85.09005 85.07841 85.0538 85.02755 85.01122 -9999 -9999 -9999 -9999 -9999 -9999 -9999 -9999 -9999
-9999 -9999 -9999 82.12716 82.13283 82.12906 82.12096 82.11343 82.10993 82.11373 82.11852 82.11783 82.11406 82.10971 82.10639 82.10595 82.10609 82.10471 82.10158 82.09669 82.09238 82.09109 82.08721 82.07496 82.06786 82.07931 82.091 82.08469 82.0735 82.07044 82.07167 82.07345 82.07241 82.06544 82.05789 82.05533 82.05835 82.06776 82.07305 82.0638 82.04668 82.02824 82.01855 82.02747 82.03795 82.0326 82.0285 82.04257 82.05774 82.05669 82.0452 82.02921 82.01534 82.01054 82.01032 82.01043 82.01127 82.01344 82.01663 82.02061 82.02524 82.0303 82.03452 82.03643 82.03824 82.04174 82.0432 82.03847 82.03426 82.03741 82.04102 82.03847 82.03808 82.04854 82.06496 82.08272 82.10001 82.11517 82.12546 82.1278 82.13646 82.16545 82.19515 82.2055 82.21592 82.2456 82.28252 82.31468 82.34097 82.36063 82.37956 82.40405 82.43182 82.46053 82.48425 82.49711 82.50751 82.52403 82.55218 82.59711 82.65279 82.71275 82.76749 82.80711 82.83408 82.85033 82.87659 82.93368 82.99133 83.01938 83.04192 83.08344 83.13829 83.20132 83.26521 83.32285 83.36626 83.38715 83.40752 83.44899 83.49827 83.54148 83.58799 83.64674 83.69954 83.72834 83.75252 83.79153 83.82993 83.85221 83.87713 83.92402 83.97652 84.01838 84.05814 84.10409 84.14771 84.18006 84.2076 84.2365 84.26325 84.28392 84.30561 84.33517 84.36914 84.40404 84.43277 84.44846 84.46496 84.49654 84.53854 84.58655 84.63482 84.67774 84.71241 84.73559 84.75723 84.78696 84.81673 84.83804 84.85239 84.86117 84.87778 84.91602 84.95816 84.98689 85.00709 85.02418 85.04183 85.06419 85.08618 85.10297 85.10909 85.09864 85.08507 85.08143 85.08322 85.08539 85.0829 85.07027 85.05614 85.04942 85.03819 85.01102 84.98219 84.96661 -9999 -9999 -9999 -9999 -9999 -9999 -9999 -9999 -9999
-9999 -9999 -9999 82.09129 82.09847 82.10253 82.10387 82.10293 82.10375 82.1104 82.115 82.1096 82.10158 82.09834 82.09708 82.095 82.09054 82.08211 82.0743 82.0717 82.07304 82.07709 82.0747 82.0567 82.04284 82.05292 82.06543 82.05878 82.04816 82.04876 82.05261 82.05168 82.04867 82.04627 82.042 82.03336 82.02883 82.0369 82.04502 82.04066 82.02914 82.01585 82.00719 82.00958 82.01428 82.01252 82.01127 82.01752 82.02389 82.02296 82.0169 82.00794 81.99887 81.99252 81.99033 81.99376 81.99657 81.99252 81.98998 81.99752 82.00751 82.01252 82.00993 81.99713 81.98704 81.99254 82.00368 82.01044 82.01304 82.01169 82.00972 82.01044 82.01418 82.02126 82.03273 82.0496 82.06856 82.08627 82.10084 82.11043 82.12187 82.14207 82.16055 82.16671 82.17649 82.20584 82.24335 82.27751 82.3075 82.3325 82.35437 82.375 82.39781 82.42625 82.44814 82.45129 82.45691 82.48625 82.53091 82.58246 82.63465 82.68123 82.72281 82.76001 82.79375 82.825 82.86309 82.91744 82.96748 82.99252 83.01032 83.03876 83.08199 83.14416 83.21343 83.27791 83.32697 83.35002 83.3672 83.39875 83.44283 83.4975 83.5556 83.60999 83.65511 83.68544 83.71281 83.74916 83.78574 83.81376 83.84468 83.88998 83.93895 83.98083 84.0228 84.07207 84.11864 84.1525 84.17688 84.19502 84.21659 84.25125 84.2906 84.32623 84.35811 84.38624 84.41 84.42875 84.44936 84.47871 84.51373 84.55124 84.59064 84.63126 84.66596 84.68754 84.70894 84.74314 84.77793 84.80106 84.81462 84.82087 84.83512 84.8729 84.91687 84.94958 84.97085 84.98045 84.98994 85.01086 85.03587 85.05753 85.06692 85.05506 85.04005 85.04003 85.04305 85.03712 85.02911 85.02588 85.02212 85.01254 84.99319 84.96008 84.92883 84.91505 -9999 -9999 -9999 -9999 -9999 -9999 -9999 -9999 -9999
-9999 -9999 -9999 82.05499 82.06593 82.07614 82.08504 82.09187 82.09786 82.10415 82.1046 82.09306 82.08229 82.08542 82.09106 82.08804 82.07652 82.05682 82.04155 82.04362 82.05345 82.06134 82.05902 82.03802 82.02083 82.02982 82.04277 82.0375 82.02966 82.0349 82.04067 82.03452 82.02648 82.0268 82.02497 82.01066 81.99828 82.00247 82.01167 82.01405 82.01118 82.00436 81.99705 81.99249 81.99056 81.99091 81.99117 81.98864 81.98635 81.98722 81.98858 81.98804 81.98455 81.97731 81.97244 81.97626 81.97804 81.96719 81.95888 81.96831 81.98267 81.98895 81.98302 81.96053 81.94199 81.94769 81.96502 81.98126 81.99032 81.98639 81.98028 81.98315 81.9893 81.99335 82.00043 82.01591 82.03667 82.05946 82.08125 82.09884 82.11253 82.12248 82.12868 82.13083 82.13991 82.16678 82.20306 82.24062 82.2752 82.30292 82.3252 82.34386 82.36385 82.39011 82.41042 82.41258 82.41988 82.45557 82.50754 82.56336 82.61343 82.64776 82.67727 82.71243 82.75299 82.79842 82.84499 82.88937 82.92698 82.95377 82.9748 82.99565 83.02767 83.08273 83.15002 83.21834 83.2746 83.30494 83.32449 83.34776 83.38641 83.45149 83.51909 83.56501 83.59987 83.6348 83.67007 83.70605 83.74262 83.77969 83.81783 83.85808 83.90029 83.94421 83.98943 84.03515 84.07881 84.11744 84.14571 84.15779 84.17502 84.21838 84.26906 84.30811 84.33856 84.36375 84.3877 84.41467 84.44183 84.46655 84.48926 84.51057 84.53705 84.57494 84.61195 84.63517 84.65767 84.69202 84.72789 84.75433 84.77285 84.78439 84.80115 84.8353 84.87531 84.9099 84.93166 84.93368 84.93494 84.95495 84.98316 85.00881 85.02122 85.00917 84.99436 84.99808 85.00176 84.98624 84.97019 84.97222 84.97574 84.96474 84.94075 84.906 84.87609 84.86723 -9999 -9999 -9999 -9999 -9999 -9999 -9999 -9999 -9999
-9999 -9999 -9999 82.04374 82.0602 82.06709 82.07 82.0746 82.07893 82.08127 82.07594 82.05756 82.04392 82.05334 82.06721 82.06708 82.05431 82.03001 82.01242 82.01955 82.03448 82.03999 82.03429 82.01541 82.00169 82.01125 82.0256 82.02625 82.02385 82.02916 82.03136 82.01969 82.00732 82.00759 82.00671 81.99084 81.97538 81.97559 81.98283 81.98811 81.98912 81.98332 81.97472 81.96712 81.9633 81.96626 81.97082 81.9721 81.97031 81.96585 81.96249 81.96419 81.96564 81.96166 81.95699 81.95624 81.95441 81.94626 81.94051 81.94581 81.95564 81.96335 81.96124 81.9417 81.92417 81.92832 81.94195 81.95293 81.95915 81.95879 81.95645 81.9571 81.96063 81.96705 81.97699 81.99081 82.01062 82.03828 82.06582 82.08498 82.0974 82.10459 82.10905 82.11334 82.12488 82.15122 82.18403 82.21499 82.24097 82.25918 82.2766 82.30037 82.32613 82.34912 82.36875 82.38412 82.40134 82.42619 82.4631 82.51623 82.5665 82.59504 82.61991 82.65998 82.70587 82.74876 82.78707 82.82002 82.85319 82.89243 82.92908 82.95371 82.97978 83.02032 83.0741 83.13906 83.19853 83.2349 83.26317 83.29752 83.34524 83.4137 83.47837 83.51502 83.54085 83.57375 83.61227 83.65501 83.7 83.74494 83.7881 83.82744 83.86842 83.91619 83.96122 83.99369 84.02534 84.06751 84.10837 84.13623 84.16091 84.19248 84.22835 84.26624 84.30119 84.32877 84.35594 84.38995 84.41936 84.43246 84.44099 84.45621 84.4825 84.52366 84.56553 84.59335 84.61604 84.64272 84.67183 84.70232 84.73061 84.75333 84.77539 84.80167 84.83037 84.86002 84.88022 84.88079 84.88255 84.90578 84.93718 84.96286 84.97411 84.96167 84.94608 84.94752 84.94675 84.92467 84.90057 84.89463 84.89517 84.89133 84.8787 84.8538 84.83318 84.83373 -9999 -9999 -9999 -9999 -9999 -9999 -9999 -9999 -9999
-9999 -9999 -9999 82.04092 82.05859 82.05846 82.05203 82.05086 82.05177 82.05158 82.04392 82.02235 82.00631 82.01531 82.03171 82.03773 82.03058 82.00745 81.98981 81.99926 82.01485 82.01555 82.0068 81.99409 81.9874 81.99672 82.01024 82.0161 82.01812 82.02011 82.01638 82.00121 81.98642 81.98389 81.98254 81.97118 81.9595 81.95724 81.96119 81.96808 81.97088 81.96253 81.95074 81.94325 81.94077 81.94396 81.95007 81.95626 81.95744 81.94846 81.93932 81.94002 81.94397 81.9446 81.94205 81.93649 81.93063 81.92721 81.92655 81.92907 81.93392 81.94032 81.94131 81.92992 81.91785 81.91688 81.92095 81.92397 81.92672 81.92992 81.93185 81.93076 81.93223 81.94188 81.95592 81.97053 81.99004 82.01878 82.04598 82.0608 82.0692 82.0772 82.08595 82.09657 82.11242 82.13686 82.16351 82.18594 82.20197 82.2094 82.22183 82.25282 82.28647 82.3069 82.32485 82.35124 82.37555 82.38721 82.40714 82.45632 82.50843 82.53702 82.56284 82.60685 82.65401 82.68919 82.71705 82.74231 82.77568 82.82781 82.87968 82.9122 82.93706 82.96604 83.00705 83.06792 83.12798 83.16657 83.20064 83.24718 83.30497 83.37276 83.43139 83.46159 83.48205 83.51157 83.55203 83.60531 83.66178 83.71187 83.75499 83.79062 83.82843 83.87811 83.92249 83.9444 83.96682 84.01281 84.06618 84.1107 84.14413 84.16418 84.18401 84.21686 84.25344 84.28439 84.3161 84.355 84.38451 84.38806 84.38755 84.40491 84.43684 84.47997 84.52303 84.5547 84.57809 84.59642 84.61771 84.64996 84.68552 84.71677 84.74295 84.76335 84.78185 84.80233 84.818 84.82213 84.82911 84.85336 84.88319 84.9069 84.91763 84.90851 84.89543 84.8944 84.8894 84.86435 84.83623 84.82214 84.81794 84.81944 84.81746 84.80287 84.7911 84.79763 -9999 -9999 -9999 -9999 -9999 -9999 -9999 -9999 -9999
-9999 -9999 -9999 82.02998 82.03835 82.03333 82.02431 82.0204 82.02097 82.02499 82.02335 82.0067 81.98907 81.9846 81.9908 82.00544 82.01208 81.99462 81.97678 81.9825 81.99324 81.99042 81.98284 81.97917 81.97996 81.98563 81.99283 81.99812 81.99987 81.99628 81.9873 81.97305 81.95898 81.95095 81.94781 81.94878 81.9501 81.94833 81.94938 81.95915 81.96438 81.95168 81.93565 81.93083 81.93095 81.92957 81.92856 81.92957 81.92941 81.92461 81.91968 81.91917 81.92144 81.92501 81.92572 81.91961 81.91177 81.90752 81.90864 81.91707 81.925 81.92458 81.91982 81.91458 81.90721 81.89583 81.88847 81.89294 81.90009 81.90086 81.89998 81.90253 81.90821 81.91709 81.9308 81.95125 81.97453 81.99684 82.01315 82.0181 82.02062 82.02913 82.04347 82.06288 82.08356 82.10127 82.11871 82.13879 82.15507 82.16171 82.17434 82.20916 82.24651 82.26669 82.28059 82.29919 82.31672 82.32745 82.34918 82.39908 82.45344 82.48788 82.51762 82.55743 82.59887 82.63294 82.66214 82.68919 82.72443 82.77872 82.83337 82.87001 82.89839 82.92875 82.97029 83.03242 83.09216 83.12621 83.15438 83.19617 83.25094 83.31741 83.37595 83.40629 83.42714 83.45751 83.50226 83.56622 83.63212 83.68249 83.71808 83.74004 83.76536 83.81116 83.85753 83.88371 83.91189 83.96367 84.0201 84.0616 84.09441 84.12413 84.15136 84.17625 84.20245 84.23376 84.26963 84.31001 84.33985 84.34464 84.34779 84.37332 84.40988 84.4462 84.48083 84.51203 84.53751 84.55455 84.57304 84.60245 84.6353 84.66378 84.6888 84.71171 84.72933 84.73922 84.74662 84.75755 84.77121 84.78754 84.80642 84.82785 84.84381 84.84539 84.84266 84.84497 84.84067 84.81751 84.79286 84.78378 84.78125 84.77628 84.76717 84.75256 84.74103 84.74171 -9999 -9999 -9999 -9999 -9999 -9999 -9999 -9999 -9999
-9999 -9999 -9999 82.01645 82.01471 82.00732 81.99914 81.99512 81.99658 82.00501 82.00945 81.99908 81.98092 81.96211 81.95573 81.97487 81.99288 81.98283 81.9669 81.96717 81.97101 81.96552 81.95956 81.96175 81.96702 81.96999 81.9717 81.97314 81.97147 81.9641 81.95364 81.94307 81.93339 81.92587 81.92437 81.93281 81.94031 81.93592 81.93252 81.94277 81.9493 81.93436 81.91776 81.91907 81.92381 81.91751 81.9081 81.90367 81.90257 81.90335 81.90348 81.90063 81.89877 81.90186 81.90456 81.90134 81.89526 81.88917 81.88913 81.90112 81.91111 81.90492 81.89514 81.89449 81.89101 81.87296 81.85828 81.86522 81.87649 81.87502 81.87151 81.87689 81.88628 81.89487 81.90873 81.93372 81.95819 81.97028 81.97356 81.97124 81.97137 81.98159 82.00026 82.02584 82.04916 82.06138 82.07198 82.09085 82.10918 82.11857 82.13343 82.16838 82.20505 82.22466 82.23492 82.24319 82.25367 82.26997 82.29931 82.34844 82.40135 82.4422 82.47689 82.51189 82.54644 82.58033 82.61314 82.64501 82.68354 82.7366 82.78908 82.82536 82.85651 82.89307 82.93984 83.00116 83.05817 83.0915 83.1172 83.15094 83.19563 83.25439 83.31017 83.3466 83.37604 83.41158 83.46 83.52811 83.59563 83.64181 83.66915 83.67963 83.69482 83.73555 83.78483 83.82484 83.86703 83.92237 83.9731 84.00159 84.02823 84.07406 84.11899 84.14345 84.16217 84.19033 84.22416 84.25994 84.28806 84.2984 84.31073 84.34431 84.38342 84.41183 84.43617 84.46273 84.48837 84.51022 84.53205 84.55814 84.58353 84.60336 84.62315 84.64867 84.66913 84.67433 84.67864 84.69672 84.7165 84.72529 84.73367 84.75163 84.76997 84.77882 84.78451 84.79284 84.79396 84.77818 84.76041 84.75607 84.75269 84.73818 84.71906 84.70244 84.68791 84.67527 -9999 -9999 -9999 -9999 -9999 -9999 -9999 -9999 -9999
-9999 -9999 -9999 82.00583 82.00292 81.99583 81.98896 81.98666 81.98875 81.995 81.9974 81.98795 81.97042 81.94878 81.93739 81.95083 81.96686 81.96337 81.95364 81.95123 81.9495 81.94167 81.93408 81.93289 81.93624 81.94192 81.94533 81.94186 81.93546 81.93004 81.92477 81.91918 81.91791 81.9258 81.93375 81.93249 81.92321 81.90707 81.89568 81.90038 81.90533 81.89413 81.88535 81.89706 81.90938 81.90208 81.89054 81.88999 81.89344 81.89375 81.89051 81.88335 81.87645 81.87419 81.87496 81.8775 81.87833 81.87417 81.8704 81.87247 81.87443 81.86999 81.86585 81.8683 81.86815 81.85585 81.84428 81.84625 81.853 81.85583 81.85687 81.85834 81.86393 81.87749 81.89654 81.91872 81.93515 81.93685 81.93348 81.93436 81.9412 81.95538 81.9752 81.99871 82.02026 82.03416 82.0455 82.05959 82.07298 82.08251 82.09798 82.12957 82.1613 82.17712 82.18639 82.1987 82.21532 82.23747 82.26759 82.30785 82.3522 82.3941 82.43353 82.46993 82.50287 82.53168 82.56055 82.59416 82.63669 82.69289 82.74525 82.77669 82.80377 82.84366 82.89157 82.94241 82.99311 83.03989 83.08186 83.11745 83.15186 83.18992 83.23243 83.28003 83.32835 83.37373 83.42255 83.48122 83.53649 83.57504 83.59959 83.61368 83.63254 83.67117 83.723 83.78074 83.83871 83.89077 83.92842 83.94286 83.96254 84.01532 84.07563 84.11747 84.14622 84.1675 84.18684 84.21001 84.23138 84.24585 84.26496 84.30077 84.33926 84.36618 84.38628 84.40369 84.425 84.45615 84.48907 84.51495 84.53367 84.54461 84.55597 84.57627 84.59724 84.61131 84.62598 84.64958 84.67205 84.68373 84.69188 84.70371 84.71348 84.71497 84.71783 84.73117 84.74286 84.74 84.72884 84.71546 84.69957 84.68133 84.66412 84.65211 84.63622 84.60799 -9999 -9999 -9999 -9999 -9999 -9999 -9999 -9999 -9999
-9999 -9999 -9999 81.99353 81.99376 81.98898 81.98328 81.98083 81.98154 81.98542 81.98549 81.97491 81.95792 81.93888 81.92666 81.93018 81.93846 81.9402 81.93821 81.9351 81.92979 81.92104 81.91232 81.90687 81.90749 81.91673 81.92281 81.91395 81.90228 81.90023 81.90186 81.90147 81.90717 81.92727 81.94138 81.92907 81.90373 81.87865 81.86131 81.85895 81.86067 81.85531 81.85513 81.87219 81.88719 81.88087 81.87145 81.8775 81.88585 81.88345 81.87498 81.86533 81.85589 81.84812 81.84577 81.85236 81.859 81.85645 81.84919 81.84165 81.83645 81.83607 81.83797 81.83971 81.8395 81.83595 81.8315 81.82887 81.83055 81.83927 81.84619 81.84263 81.84277 81.86089 81.88445 81.9006 81.90786 81.90452 81.90089 81.90701 81.92053 81.93884 81.95848 81.97605 81.99244 82.00885 82.02386 82.03636 82.04617 82.05345 82.06586 82.09119 82.11663 82.12904 82.13899 82.15681 82.18101 82.20953 82.24134 82.27498 82.31054 82.34824 82.38551 82.42031 82.45173 82.47949 82.50806 82.54259 82.58649 82.64333 82.69408 82.71902 82.7418 82.78552 82.83572 82.87712 82.92203 82.98207 83.04176 83.085 83.11519 83.13596 83.16485 83.21991 83.28196 83.33237 83.37829 83.42686 83.47089 83.50276 83.52792 83.55128 83.57948 83.61848 83.67031 83.73645 83.80062 83.84595 83.87315 83.88327 83.90166 83.95448 84.02033 84.07841 84.12015 84.13753 84.14442 84.15495 84.1692 84.18669 84.2118 84.24816 84.28676 84.31796 84.33992 84.35035 84.36533 84.40123 84.4414 84.4697 84.48653 84.49253 84.49709 84.50981 84.52808 84.54983 84.57463 84.60242 84.62776 84.64465 84.65446 84.65807 84.65623 84.64903 84.64864 84.66657 84.68681 84.69347 84.68693 84.66819 84.64414 84.62225 84.60574 84.59848 84.58426 84.54719 -9999 -9999 -9999 -9999 -9999 -9999 -9999 -9999 -9999
-9999 -9999 -9999 81.97498 81.97793 81.97666 81.97168 81.96333 81.9592 81.96664 81.97209 81.96169 81.94376 81.9267 81.91416 81.91001 81.91187 81.91752 81.92165 81.91918 81.91294 81.90584 81.90012 81.89792 81.90073 81.91 81.91344 81.89877 81.88242 81.88084 81.88603 81.89001 81.89581 81.90668 81.91259 81.90381 81.88657 81.86752 81.85198 81.84541 81.84354 81.84209 81.84385 81.85165 81.85701 81.85124 81.84658 81.85497 81.86377 81.86002 81.85111 81.8446 81.83823 81.83002 81.82551 81.83042 81.83509 81.83004 81.82227 81.81915 81.81876 81.81916 81.81783 81.81207 81.80627 81.80454 81.80514 81.80585 81.81008 81.82125 81.82957 81.82545 81.82415 81.84124 81.86247 81.87377 81.87876 81.88123 81.88376 81.88873 81.8997 81.91997 81.94051 81.95206 81.96128 81.9746 81.99171 82.01249 82.02842 82.03127 82.03455 82.05209 82.07286 82.08586 82.09609 82.10876 82.12994 82.16577 82.20781 82.24704 82.28144 82.3087 82.33129 82.35119 82.37688 82.41624 82.45931 82.49626 82.53502 82.58415 82.62712 82.64798 82.67157 82.72372 82.78249 82.82619 82.87 82.92866 82.99028 83.04241 83.08156 83.10373 83.12957 83.17955 83.23463 83.27586 83.31557 83.36623 83.41431 83.44627 83.47191 83.50166 83.53657 83.57786 83.62497 83.67698 83.7263 83.7645 83.79494 83.81995 83.85062 83.89741 83.95222 84.00628 84.04958 84.07254 84.08308 84.09006 84.10023 84.12125 84.15202 84.19209 84.2353 84.27576 84.30583 84.31749 84.32783 84.35369 84.38686 84.41867 84.4427 84.45212 84.45621 84.46459 84.47601 84.48962 84.5099 84.54208 84.57298 84.59005 84.59471 84.58869 84.58009 84.57622 84.58286 84.60494 84.62595 84.62869 84.62363 84.62048 84.60864 84.57756 84.54729 84.53839 84.52975 -9999 -9999 -9999 -9999 -9999 -9999 -9999 -9999 -9999 -9999
-9999 -9999 -9999 81.95834 81.96066 81.96053 81.95502 81.94118 81.93243 81.94219 81.95228 81.94441 81.92805 81.91273 81.90041 81.89304 81.89171 81.89751 81.90321 81.90158 81.89622 81.89075 81.88806 81.89104 81.89748 81.90514 81.90469 81.88676 81.86811 81.86563 81.87173 81.87875 81.88318 81.88148 81.87723 81.87399 81.86945 81.86127 81.85168 81.84293 81.83712 81.83636 81.83659 81.83377 81.82878 81.82253 81.82079 81.82938 81.83588 81.82784 81.81749 81.8171 81.81806 81.81179 81.8059 81.80803 81.8101 81.80399 81.79778 81.7997 81.80368 81.80376 81.79813 81.78493 81.77269 81.76991 81.77357 81.78053 81.79034 81.8025 81.81038 81.80732 81.80605 81.81937 81.83556 81.84283 81.84923 81.8628 81.87468 81.87595 81.87947 81.89812 81.91795 81.92492 81.92836 81.93762 81.95537 81.98425 82.00817 82.01096 82.00921 82.01958 82.03515 82.04898 82.0603 82.06845 82.08408 82.11781 82.16255 82.21114 82.25131 82.27085 82.27916 82.28568 82.3068 82.35902 82.41685 82.4547 82.48566 82.52291 82.55667 82.57703 82.60583 82.66505 82.73114 82.78042 82.82463 82.87563 82.93108 82.98872 83.03884 83.07168 83.1014 83.14227 83.18324 83.21316 83.24662 83.29842 83.3511 83.38721 83.41727 83.45187 83.49133 83.53593 83.5788 83.61303 83.64379 83.67619 83.71196 83.75284 83.7971 83.84311 83.88783 83.92815 83.96315 83.9919 84.01278 84.02411 84.03674 84.06156 84.09634 84.13876 84.18442 84.22894 84.26492 84.28492 84.29781 84.31252 84.3343 84.36842 84.39956 84.41243 84.41698 84.42336 84.43014 84.43587 84.45017 84.4827 84.51421 84.52538 84.52201 84.51008 84.50071 84.50506 84.52066 84.54503 84.56136 84.55289 84.54415 84.55972 84.56704 84.53343 84.49252 84.47807 84.47096 -9999 -9999 -9999 -9999 -9999 -9999 -9999 -9999 -9999 -9999
